19.1997451782227,19.2013473510742,19.2029647827148,19.2045650482178,19.2061748504639,19.2077884674072,19.2093906402588,19.2109966278076,19.212610244751,19.2142238616943,19.2158317565918,19.2174377441406,19.2190494537354,19.2206554412842,19.2222671508789,19.2238845825195,19.2254905700684,19.2271099090576,19.2287197113037,19.2303295135498,19.2319412231445,19.2335567474365,19.2351608276367,19.2367782592773,19.2383918762207,19.2400093078613,19.2416248321533,19.2432327270508,19.2448482513428,19.2464637756348,19.2480773925781,19.2496929168701,19.2513122558594,19.2529315948486,19.2545394897461,19.256160736084,19.2577800750732,19.259391784668,19.2610111236572,19.2626285552979,19.2642421722412,19.2658672332764,19.2674865722656,19.2691020965576,19.2707214355469,19.2723388671875,19.2739562988281,19.2755794525146,19.2772045135498,19.2788200378418,19.2804431915283,19.2820663452148,19.2836818695068,19.2853050231934,19.2869281768799,19.2885475158691,19.2901706695557,19.2917919158936,19.2934150695801,19.295036315918,19.2966632843018,19.298282623291,19.2999114990234,19.3015308380127,19.3031578063965,19.3047847747803,19.3064041137695,19.3080310821533,19.309663772583,19.3112831115723,19.3129100799561,19.3145332336426,19.3161602020264,19.3177833557129,19.3194160461426,19.3210411071777,19.3226718902588,19.3242969512939,19.3259201049805,19.3275585174561,19.3291816711426,19.3308067321777,19.3324432373047,19.3340721130371,19.3357048034668,19.3373317718506,19.338960647583,19.3405914306641,19.342227935791,19.3438587188721,19.3454875946045,19.3471221923828,19.3487491607666,19.3503856658936,19.352014541626,19.3536491394043,19.3552837371826,19.3569164276123,19.3585453033447,19.360179901123,19.3618221282959,19.3634548187256,19.3650894165039,19.3667278289795,19.3683624267578,19.3699893951416,19.3716297149658,19.37327003479,19.3749027252197,19.3765411376953,19.3781757354736,19.3798141479492,19.3814544677734,19.3830890655518,19.3847332000732,19.3863658905029,19.3880023956299,19.3896408081055,19.3912830352783,19.3929195404053,19.3945636749268,19.3962020874023,19.3978424072266,19.3994789123535,19.4011249542236,19.4027690887451,19.4044055938721,19.4060497283936,19.4076881408691,19.4093322753906,19.4109764099121,19.4126224517822,19.4142589569092,19.4159069061279,19.417552947998,19.419189453125,19.420841217041,19.4224853515625,19.4241275787354,19.4257698059082,19.4274139404297,19.4290637969971,19.4307079315186,19.4323577880859,19.4340000152588,19.4356498718262,19.437292098999,19.4389419555664,19.4405918121338,19.4422416687012,19.443883895874,19.4455318450928,19.4471817016602,19.4488315582275,19.4504871368408,19.4521293640137,19.4537792205811,19.4554328918457,19.4570827484131,19.4587326049805,19.4603824615479,19.4620380401611,19.4636859893799,19.4653415679932,19.4669914245605,19.4686412811279,19.4702987670898,19.4719486236572,19.4736022949219,19.4752540588379,19.4769096374512,19.4785614013672,19.4802207946777,19.4818706512451,19.4835224151611,19.4851875305176,19.4868354797363,19.488489151001,19.4901542663574,19.4918060302734,19.4934558868408,19.4951171875,19.4967746734619,19.4984359741211,19.5000915527344,19.5017471313477,19.5034027099609,19.5050640106201,19.5067157745361,19.5083789825439,19.5100421905518,19.5116939544678,19.5133590698242,19.5150165557861,19.5166835784912,19.5183429718018,19.5200042724609,19.5216674804688,19.523323059082,19.5249824523926,19.5266532897949,19.5283164978027,19.5299777984619,19.5316390991211,19.5333042144775,19.5349636077881,19.5366287231445,19.5382957458496,19.5399608612061,19.5416240692139,19.5432910919189,19.5449542999268,19.5466175079346,19.5482902526855,19.5499496459961,19.5516166687012,19.5532875061035,19.55495262146,19.556619644165,19.558292388916,19.5599555969238,19.5616245269775,19.563289642334,19.5649604797363,19.56662940979,19.5683040618896,19.569974899292,19.5716381072998,19.5733070373535,19.5749816894531,19.5766468048096,19.5783233642578,19.5799922943115,19.5816593170166,19.5833358764648,19.5850105285645,19.5866756439209,19.588357925415,19.5900287628174,19.5917015075684,19.5933780670166,19.5950450897217,19.5967197418213,19.5984001159668,19.6000728607178,19.6017513275146,19.6034259796143,19.6050968170166,19.6067714691162,19.6084480285645,19.6101245880127,19.6118011474609,19.6134796142578,19.6151580810547,19.6168308258057,19.6185111999512,19.6201915740967,19.6218700408936,19.6235427856445,19.62522315979,19.6269054412842,19.628589630127,19.6302623748779,19.6319446563721,19.6336250305176,19.6353015899658,19.6369876861572,19.6386737823486,19.6403503417969,19.6420364379883,19.6437168121338,19.6453952789307,19.6470794677734,19.6487674713135,19.6504459381104,19.6521320343018,19.6538143157959,19.6555004119873,19.6571826934814,19.6588668823242,19.6605567932129,19.6622371673584,19.6639194488525,19.6656112670898,19.6672954559326,19.6689872741699,19.6706714630127,19.6723556518555,19.6740474700928,19.6757316589355,19.6774139404297,19.6791095733643,19.6807956695557,19.6824836730957,19.6841716766357,19.6858615875244,19.687557220459,19.6892433166504,19.6909332275391,19.6926212310791,19.6943130493164,19.6960105895996,19.6976947784424,19.6993942260742,19.7010860443115,19.7027740478516,19.7044677734375,19.7061614990234,19.7078475952148,19.7095508575439,19.7112445831299,19.712926864624,19.7146282196045,19.7163257598877,19.7180156707764,19.7197170257568,19.7214107513428,19.7231006622314,0,0,0,0,0,0,0,0,0,0,0,0,0,0,0,0,0,0,0,0,0,0,0,0,0,0,0,0,0,0,0,0,0,0,0,0,0,0,0,0,0,0,0,0,0,0,0,0,0,0,0,0,0,0,0,0,0,0,0,0,0,0,0,0,0,0,0,0,0,0,0,0,0,0,0,0,0,0,0,0,0,0,0,0,0,0,0,0,0,0,0,0,0,0,0,0,0,0,0,0,0,0,0,0,0,0,0,0,0,0,0,0,0,0,0,0,0,0,0,0,0,0,0
18.8639831542969,18.8655338287354,18.8670825958252,18.8686389923096,18.870189666748,18.8717422485352,18.8732929229736,18.8748455047607,18.8764057159424,18.8779525756836,18.8795108795166,18.8810634613037,18.8826141357422,18.8841724395752,18.8857307434082,18.8872814178467,18.8888416290283,18.8903923034668,18.8919486999512,18.8935070037842,18.8950634002686,18.8966178894043,18.8981704711914,18.899730682373,18.9012889862061,18.9028472900391,18.9044036865234,18.9059562683105,18.9075202941895,18.9090824127197,18.9106388092041,18.9121952056885,18.9137630462646,18.9153175354004,18.916877746582,18.9184398651123,18.9199905395508,18.9215641021729,18.92311668396,18.9246826171875,18.926248550415,18.9278049468994,18.9293651580811,18.9309310913086,18.9324932098389,18.9340572357178,18.935619354248,18.9371795654297,18.9387454986572,18.9403076171875,18.941873550415,18.9434337615967,18.9450073242188,18.9465656280518,18.9481353759766,18.9497013092041,18.951265335083,18.9528293609619,18.9543991088867,18.955961227417,18.9575233459473,18.959098815918,18.9606685638428,18.9622287750244,18.9637966156006,18.9653625488281,18.9669342041016,18.9685020446777,18.9700679779053,18.9716396331787,18.9732131958008,18.974781036377,18.9763526916504,18.9779167175293,18.9794921875,18.9810638427734,18.9826316833496,18.9842052459717,18.9857807159424,18.9873428344727,18.9889163970947,18.9904899597168,18.9920635223389,18.9936351776123,18.9952144622803,18.9967803955078,18.9983520507812,18.9999332427979,19.0015087127686,19.0030784606934,19.0046539306641,19.0062236785889,19.0078010559082,19.0093841552734,19.0109539031982,19.0125255584717,19.0141086578369,19.015682220459,19.0172557830811,19.018835067749,19.0204105377197,19.0219879150391,19.0235729217529,19.025146484375,19.0267238616943,19.0283088684082,19.029878616333,19.0314617156982,19.0330390930176,19.0346221923828,19.0361976623535,19.0377807617188,19.0393562316895,19.0409374237061,19.0425186157227,19.0441074371338,19.0456809997559,19.0472679138184,19.0488414764404,19.0504264831543,19.0520133972168,19.0535984039307,19.0551700592041,19.0567626953125,19.0583477020264,19.059928894043,19.0615158081055,19.0630931854248,19.0646820068359,19.0662651062012,19.0678539276123,19.0694351196289,19.0710182189941,19.0726051330566,19.0741939544678,19.0757827758789,19.0773696899414,19.0789489746094,19.0805416107178,19.0821285247803,19.0837135314941,19.0853061676025,19.0868949890137,19.0884780883789,19.0900764465332,19.0916538238525,19.0932388305664,19.0948371887207,19.0964202880859,19.0980091094971,19.0996055603027,19.1011962890625,19.1027908325195,19.1043815612793,19.1059684753418,19.1075630187988,19.10915184021,19.1107387542725,19.1123352050781,19.1139278411865,19.1155223846436,19.1171131134033,19.1187076568604,19.1203079223633,19.1218929290771,19.1234970092773,19.1250858306885,19.1266784667969,19.1282806396484,19.1298713684082,19.131462097168,19.1330680847168,19.1346588134766,19.1362533569336,19.1378574371338,19.1394500732422,19.1410484313965,19.1426467895508,19.1442394256592,19.1458377838135,19.1474380493164,19.1490325927734,19.150634765625,19.1522369384766,19.1538314819336,19.1554317474365,19.1570339202881,19.1586360931396,19.1602344512939,19.1618328094482,19.1634330749512,19.1650352478027,19.1666450500488,19.1682395935059,19.1698379516602,19.1714515686035,19.1730480194092,19.1746482849121,19.1762580871582,19.1778545379639,19.1794662475586,19.1810665130615,19.1826686859131,19.1842746734619,19.1858825683594,19.1874828338623,19.1890907287598,19.1906929016113,19.1923007965088,19.1939105987549,19.1955165863037,19.1971206665039,19.19873046875,19.2003345489502,19.2019367218018,19.2035522460938,19.2051582336426,19.2067584991455,19.2083702087402,19.209981918335,19.2115898132324,19.2132015228271,19.2148132324219,19.2164173126221,19.2180309295654,19.2196426391602,19.2212448120117,19.2228622436523,19.2244739532471,19.2260799407959,19.2276992797852,19.2293109893799,19.2309169769287,19.232536315918,19.2341423034668,19.2357559204102,19.2373752593994,19.2389869689941,19.2405948638916,19.2422122955322,19.2438220977783,19.2454433441162,19.2470588684082,19.2486763000488,19.2502841949463,19.2519035339355,19.2535190582275,19.2551307678223,19.2567520141602,19.2583751678467,19.2599811553955,19.2616081237793,19.2632236480713,19.2648410797119,19.2664642333984,19.2680778503418,19.2696895599365,19.2713203430176,19.2729301452637,19.2745513916016,19.2761764526367,19.2777919769287,19.2794170379639,19.2810382843018,19.2826519012451,19.2842750549316,19.2859039306641,19.2875232696533,19.2891426086426,19.2907657623291,19.2923831939697,19.2940082550049,19.2956314086914,19.2972545623779,19.2988739013672,19.3005027770996,19.302131652832,19.3037509918213,19.3053779602051,19.3070030212402,19.3086242675781,19.3102569580078,19.3118801116943,19.3135013580322,19.3151302337646,19.3167591094971,19.3183860778809,19.320011138916,19.3216361999512,19.3232650756836,19.324893951416,19.3265228271484,19.328145980835,19.3297805786133,19.3314113616943,19.3330364227295,19.3346691131592,19.3362979888916,19.3379287719727,19.3395576477051,19.3411922454834,19.3428192138672,19.3444538116455,19.3460865020752,19.3477115631104,19.3493480682373,19.350980758667,19.352611541748,19.354248046875,19.3558769226074,19.357515335083,19.3591499328613,19.3607807159424,19.3624172210693,19.364049911499,19.3656826019287,19.367317199707,0,0,0,0,0,0,0,0,0,0,0,0,0,0,0,0,0,0,0,0,0,0,0,0,0,0,0,0,0,0,0,0,0,0,0,0,0,0,0,0,0,0,0,0,0,0,0,0,0,0,0,0,0,0,0,0,0,0,0,0,0,0,0,0,0,0,0,0,0,0,0,0,0,0,0,0,0,0,0,0,0,0,0,0,0,0,0,0,0,0,0,0,0,0,0,0,0,0,0,0,0,0,0,0,0,0,0,0,0,0,0,0,0,0,0,0,0,0,0,0,0,0,0,0
18.5397624969482,18.5412578582764,18.5427551269531,18.544261932373,18.5457553863525,18.547248840332,18.548755645752,18.5502605438232,18.5517578125,18.5532550811768,18.5547580718994,18.5562610626221,18.5577621459961,18.5592555999756,18.56077003479,18.5622692108154,18.5637683868408,18.5652732849121,18.5667762756348,18.5682792663574,18.5697822570801,18.5712833404541,18.5727920532227,18.574291229248,18.575798034668,18.5773048400879,18.5788021087646,18.5803127288818,18.5818176269531,18.5833187103271,18.5848274230957,18.5863304138184,18.5878448486328,18.5893497467041,18.590856552124,18.5923538208008,18.5938663482666,18.5953712463379,18.5968799591064,18.5983905792236,18.5998973846436,18.6014060974121,18.6029148101807,18.6044273376465,18.6059322357178,18.6074466705322,18.6089553833008,18.6104583740234,18.6119709014893,18.6134796142578,18.6149883270264,18.6165027618408,18.6180095672607,18.6195240020752,18.6210422515869,18.6225471496582,18.624059677124,18.6255760192871,18.6270847320557,18.6286010742188,18.6301174163818,18.6316261291504,18.6331386566162,18.6346530914307,18.6361656188965,18.6376838684082,18.639196395874,18.6407127380371,18.6422233581543,18.6437397003174,18.6452541351318,18.6467704772949,18.6482849121094,18.6498050689697,18.6513195037842,18.6528358459473,18.6543560028076,18.6558723449707,18.6573905944824,18.6589069366455,18.6604232788086,18.6619491577148,18.6634654998779,18.6649856567383,18.6665000915527,18.6680202484131,18.6695404052734,18.6710567474365,18.6725749969482,18.6740970611572,18.6756229400635,18.6771450042725,18.6786670684814,18.6801815032959,18.6817016601562,18.6832294464111,18.6847476959229,18.6862678527832,18.6877937316895,18.6893157958984,18.6908340454102,18.6923637390137,18.6938877105713,18.6954097747803,18.6969375610352,18.6984577178955,18.6999778747559,18.7015113830566,18.703031539917,18.7045497894287,18.7060890197754,18.7076034545898,18.7091274261475,18.7106647491455,18.7121887207031,18.7137107849121,18.7152442932129,18.7167625427246,18.7182960510254,18.7198219299316,18.7213497161865,18.7228755950928,18.7244071960449,18.7259292602539,18.727466583252,18.7289962768555,18.730525970459,18.732048034668,18.7335834503174,18.7351150512695,18.7366428375244,18.7381744384766,18.739709854126,18.7412338256836,18.7427730560303,18.7442951202393,18.7458248138428,18.7473678588867,18.7488975524902,18.7504272460938,18.7519683837891,18.7534961700439,18.7550277709961,18.7565689086914,18.7580966949463,18.7596340179443,18.7611675262451,18.7626953125,18.764232635498,18.7657718658447,18.7673072814941,18.7688426971436,18.7703800201416,18.7719173431396,18.7734451293945,18.7749862670898,18.7765274047852,18.7780532836914,18.7796001434326,18.781135559082,18.7826671600342,18.7842121124268,18.7857475280762,18.7872848510742,18.7888317108154,18.7903652191162,18.7919063568115,18.7934436798096,18.7949867248535,18.7965259552002,18.7980690002441,18.7996082305908,18.8011436462402,18.8026905059814,18.8042297363281,18.8057708740234,18.807315826416,18.8088569641113,18.8104000091553,18.8119430541992,18.8134860992432,18.8150272369385,18.8165683746338,18.8181171417236,18.8196582794189,18.8212070465088,18.82275390625,18.8242893218994,18.8258419036865,18.8273849487305,18.8289260864258,18.8304805755615,18.8320217132568,18.8335704803467,18.8351154327393,18.8366622924805,18.8382091522217,18.8397541046143,18.8413047790527,18.8428535461426,18.8443984985352,18.8459548950195,18.8474960327148,18.849048614502,18.8505973815918,18.8521461486816,18.8536949157715,18.8552436828613,18.8567962646484,18.8583488464355,18.859899520874,18.8614387512207,18.8629989624023,18.8645458221436,18.8661003112793,18.8676567077637,18.8692016601562,18.870756149292,18.8723068237305,18.8738574981689,18.8754196166992,18.8769683837891,18.8785228729248,18.8800830841064,18.8816337585449,18.8831844329834,18.884744644165,18.8862953186035,18.8878517150879,18.8894081115723,18.8909587860107,18.8925170898438,18.8940734863281,18.8956260681152,18.8971843719482,18.8987464904785,18.9003009796143,18.9018611907959,18.9034175872803,18.9049797058105,18.9065284729004,18.9080924987793,18.9096527099609,18.9112071990967,18.9127731323242,18.9143314361572,18.9158840179443,18.9174556732178,18.9190101623535,18.9205703735352,18.9221324920654,18.9236946105957,18.9252548217773,18.9268169403076,18.9283771514893,18.9299392700195,18.9315013885498,18.9330615997314,18.9346313476562,18.9361953735352,18.9377555847168,18.9393157958984,18.940881729126,18.9424457550049,18.9440097808838,18.9455757141113,18.9471397399902,18.9487075805664,18.9502773284912,18.9518394470215,18.953405380249,18.9549732208252,18.9565334320068,18.958101272583,18.9596767425537,18.9612350463867,18.9628067016602,18.9643745422363,18.9659366607666,18.9675064086914,18.9690799713135,18.970645904541,18.9722156524658,18.9737854003906,18.9753570556641,18.9769248962402,18.9784927368164,18.9800701141357,18.9816360473633,18.9832096099854,18.9847755432129,18.9863452911377,18.9879264831543,18.9894962310791,18.9910659790039,18.9926414489746,18.9942111968994,18.9957828521729,18.9973583221436,18.9989318847656,19.0005054473877,19.0020790100098,19.0036563873291,19.0052280426025,19.0068035125732,19.0083789825439,19.009952545166,19.011531829834,19.0131034851074,19.0146789550781,19.0162582397461,19.0178394317627,19.0194110870361,19.0209903717041,19.0225639343262,19.0241394042969,19.0257225036621,19.0272998809814,19.0288791656494,0,0,0,0,0,0,0,0,0,0,0,0,0,0,0,0,0,0,0,0,0,0,0,0,0,0,0,0,0,0,0,0,0,0,0,0,0,0,0,0,0,0,0,0,0,0,0,0,0,0,0,0,0,0,0,0,0,0,0,0,0,0,0,0,0,0,0,0,0,0,0,0,0,0,0,0,0,0,0,0,0,0,0,0,0,0,0,0,0,0,0,0,0,0,0,0,0,0,0,0,0,0,0,0,0,0,0,0,0,0,0,0,0,0,0,0,0,0,0,0,0,0
18.2264957427979,18.2279453277588,18.2293968200684,18.2308387756348,18.232292175293,18.2337417602539,18.2351894378662,18.2366409301758,18.2380924224854,18.2395439147949,18.2409858703613,18.2424411773682,18.2438983917236,18.2453384399414,18.2467975616455,18.2482490539551,18.249698638916,18.251148223877,18.2526035308838,18.2540531158447,18.2555065155029,18.2569599151611,18.2584133148193,18.2598705291748,18.2613201141357,18.2627754211426,18.2642307281494,18.2656784057617,18.2671375274658,18.2685966491699,18.2700500488281,18.2715072631836,18.2729568481445,18.2744178771973,18.2758750915527,18.2773342132568,18.278787612915,18.2802467346191,18.281702041626,18.2831611633301,18.2846164703369,18.2860717773438,18.2875328063965,18.2889862060547,18.2904510498047,18.2919006347656,18.2933616638184,18.2948303222656,18.2962799072266,18.2977409362793,18.2992000579834,18.300666809082,18.3021259307861,18.3035850524902,18.3050422668457,18.3065032958984,18.3079662322998,18.3094272613525,18.3108863830566,18.3123550415039,18.3138122558594,18.3152770996094,18.3167381286621,18.3182029724121,18.3196659088135,18.3211269378662,18.3225936889648,18.3240547180176,18.3255233764648,18.3269805908203,18.3284454345703,18.3299140930176,18.3313770294189,18.3328380584717,18.3343086242676,18.3357753753662,18.3372402191162,18.3387050628662,18.3401699066162,18.3416366577148,18.3431053161621,18.3445663452148,18.346040725708,18.3475074768066,18.3489723205566,18.3504409790039,18.3519134521484,18.3533821105957,18.354850769043,18.3563175201416,18.3577861785889,18.3592510223389,18.3607273101807,18.3621940612793,18.3636646270752,18.365140914917,18.3666114807129,18.3680763244629,18.3695507049561,18.3710250854492,18.3724956512451,18.3739681243896,18.3754329681396,18.3769073486328,18.3783760070801,18.3798503875732,18.3813323974609,18.3827991485596,18.3842716217041,18.3857479095459,18.3872203826904,18.3886985778809,18.3901748657227,18.3916435241699,18.3931179046631,18.3945980072021,18.396068572998,18.3975429534912,18.3990268707275,18.4004974365234,18.4019737243652,18.4034481048584,18.4049224853516,18.4064064025879,18.407886505127,18.4093570709229,18.410831451416,18.4123191833496,18.41379737854,18.4152660369873,18.4167499542236,18.4182243347168,18.41969871521,18.4211921691895,18.422664642334,18.4241485595703,18.4256267547607,18.4271049499512,18.4285869598389,18.4300689697266,18.4315490722656,18.4330234527588,18.4345169067383,18.4359951019287,18.4374732971191,18.4389591217041,18.4404411315918,18.4419231414795,18.4434089660645,18.4448890686035,18.4463748931885,18.4478626251221,18.4493408203125,18.4508190155029,18.4523124694824,18.4537887573242,18.4552707672119,18.4567584991455,18.4582481384277,18.4597282409668,18.4612216949463,18.4627017974854,18.4641933441162,18.4656715393066,18.4671630859375,18.4686489105225,18.4701347351074,18.4716262817383,18.4731140136719,18.4745979309082,18.4760856628418,18.4775714874268,18.4790649414062,18.4805564880371,18.4820404052734,18.4835376739502,18.4850196838379,18.4865074157715,18.4880065917969,18.4894924163818,18.4909782409668,18.4924736022949,18.4939651489258,18.4954586029053,18.4969501495361,18.4984397888184,18.4999313354492,18.5014266967773,18.5029144287109,18.5044136047363,18.5059070587158,18.5073947906494,18.5088882446289,18.5103855133057,18.5118789672852,18.5133686065674,18.5148677825928,18.5163593292236,18.5178546905518,18.5193500518799,18.520845413208,18.5223407745361,18.5238437652588,18.525333404541,18.5268268585205,18.5283241271973,18.5298252105713,18.5313148498535,18.5328197479248,18.5343151092529,18.5358123779297,18.5373134613037,18.5388069152832,18.5403118133545,18.5418090820312,18.5433082580566,18.5448017120361,18.5463047027588,18.5478057861328,18.5493030548096,18.5508041381836,18.5523090362549,18.5537986755371,18.5553092956543,18.5568103790283,18.5583095550537,18.5598125457764,18.561315536499,18.5628128051758,18.5643196105957,18.5658206939697,18.5673179626465,18.5688304901123,18.5703296661377,18.5718383789062,18.5733394622803,18.5748405456543,18.5763530731201,18.5778522491455,18.5793552398682,18.5808601379395,18.5823650360107,18.5838737487793,18.5853843688965,18.5868854522705,18.5883884429932,18.589900970459,18.5914039611816,18.5929088592529,18.5944194793701,18.59592628479,18.5974369049072,18.5989418029785,18.6004486083984,18.6019592285156,18.6034660339355,18.6049766540527,18.6064834594727,18.6079940795898,18.6095027923584,18.6110134124756,18.61252784729,18.6140365600586,18.6155433654785,18.6170558929443,18.6185703277588,18.620080947876,18.6215972900391,18.6231002807617,18.6246166229248,18.626127243042,18.6276378631592,18.6291522979736,18.6306705474854,18.6321773529053,18.6336898803711,18.6352119445801,18.6367206573486,18.6382331848145,18.6397552490234,18.6412696838379,18.6427841186523,18.6442966461182,18.6458129882812,18.6473293304443,18.6488475799561,18.6503639221191,18.6518783569336,18.653392791748,18.654914855957,18.6564273834229,18.6579475402832,18.6594657897949,18.6609783172607,18.6625022888184,18.6640167236328,18.6655368804932,18.6670608520508,18.6685752868652,18.6700973510742,18.6716175079346,18.6731376647949,18.6746501922607,18.676176071167,18.677698135376,18.679220199585,18.6807403564453,18.6822605133057,18.6837825775146,18.6853065490723,18.6868267059326,18.688346862793,18.6898746490479,18.6913909912109,18.6929168701172,18.6944446563721,18.6959686279297,18.6974945068359,18.6990146636963,18.7005367279053,18.7020606994629,18.7035884857178,18.705114364624,0,0,0,0,0,0,0,0,0,0,0,0,0,0,0,0,0,0,0,0,0,0,0,0,0,0,0,0,0,0,0,0,0,0,0,0,0,0,0,0,0,0,0,0,0,0,0,0,0,0,0,0,0,0,0,0,0,0,0,0,0,0,0,0,0,0,0,0,0,0,0,0,0,0,0,0,0,0,0,0,0,0,0,0,0,0,0,0,0,0,0,0,0,0,0,0,0,0,0,0,0,0,0,0,0,0,0,0,0,0,0,0,0,0,0,0,0,0
17.923641204834,17.925048828125,17.9264430999756,17.9278430938721,17.9292430877686,17.9306507110596,17.9320487976074,17.9334506988525,17.934850692749,17.9362506866455,17.9376621246338,17.9390659332275,17.9404621124268,17.9418697357178,17.9432716369629,17.9446773529053,17.9460830688477,17.9474792480469,17.9488887786865,17.9502906799316,17.9516983032227,17.953104019165,17.9545097351074,17.9559135437012,17.9573230743408,17.9587268829346,17.9601306915283,17.961540222168,17.9629516601562,17.96435546875,17.9657573699951,17.9671669006348,17.9685745239258,17.9699802398682,17.9713916778564,17.9727973937988,17.9741992950439,17.9756145477295,17.9770240783691,17.9784297943115,17.9798412322998,17.9812469482422,17.9826622009277,17.9840717315674,17.985481262207,17.9868927001953,17.9883003234863,17.9897136688232,17.9911212921143,17.9925365447998,17.9939441680908,17.9953517913818,17.9967727661133,17.9981842041016,17.9995937347412,18.0010089874268,18.0024185180664,18.0038318634033,18.0052528381348,18.0066585540771,18.0080738067627,18.0094909667969,18.0109004974365,18.0123138427734,18.013729095459,18.0151462554932,18.0165634155273,18.0179748535156,18.0193901062012,18.0208072662354,18.0222263336182,18.0236396789551,18.0250492095947,18.0264739990234,18.027889251709,18.0293064117432,18.0307216644287,18.0321407318115,18.0335578918457,18.0349712371826,18.0363941192627,18.0378093719482,18.0392322540283,18.0406513214111,18.0420703887939,18.0434894561768,18.0449066162109,18.0463218688965,18.0477466583252,18.0491676330566,18.0505847930908,18.0520114898682,18.0534286499023,18.0548534393311,18.0562782287598,18.0576915740967,18.0591163635254,18.0605373382568,18.0619564056396,18.0633811950684,18.0648040771484,18.0662250518799,18.0676460266113,18.0690746307373,18.070499420166,18.0719184875488,18.0733432769775,18.0747718811035,18.0761871337891,18.0776214599609,18.0790481567383,18.0804691314697,18.0818977355957,18.0833225250244,18.0847454071045,18.0861740112305,18.0876026153564,18.0890274047852,18.0904560089111,18.0918769836426,18.0933094024658,18.0947303771973,18.0961608886719,18.0975933074951,18.0990200042725,18.1004505157471,18.1018772125244,18.1033058166504,18.1047344207764,18.106164932251,18.1075916290283,18.109016418457,18.1104488372803,18.1118869781494,18.1133117675781,18.1147403717041,18.1161766052246,18.1176013946533,18.1190357208252,18.1204681396484,18.1218910217285,18.1233367919922,18.1247634887695,18.1261920928955,18.1276340484619,18.1290588378906,18.1304931640625,18.131929397583,18.1333599090576,18.1347942352295,18.1362247467041,18.137659072876,18.1390972137451,18.1405372619629,18.1419696807861,18.1433982849121,18.1448402404785,18.1462707519531,18.1477108001709,18.1491470336914,18.1505851745605,18.1520156860352,18.1534519195557,18.1548881530762,18.1563243865967,18.1577663421631,18.159200668335,18.1606388092041,18.1620788574219,18.1635150909424,18.1649532318115,18.1663990020752,18.1678333282471,18.1692657470703,18.1707096099854,18.1721496582031,18.1735858917236,18.1750316619873,18.1764717102051,18.1779098510742,18.1793537139893,18.1807899475098,18.1822299957275,18.1836719512939,18.1851196289062,18.1865577697754,18.1879978179932,18.1894416809082,18.1908798217773,18.1923274993896,18.1937732696533,18.1952095031738,18.1966552734375,18.1981010437012,18.1995429992676,18.2009944915771,18.2024345397949,18.2038764953613,18.2053260803223,18.20676612854,18.2082138061523,18.2096614837646,18.2111053466797,18.2125511169434,18.2139949798584,18.215446472168,18.216890335083,18.2183380126953,18.2197895050049,18.2212295532227,18.2226829528809,18.2241325378418,18.2255783081055,18.2270221710205,18.228479385376,18.2299213409424,18.2313709259033,18.2328224182129,18.2342643737793,18.235725402832,18.2371692657471,18.2386150360107,18.2400741577148,18.2415180206299,18.2429714202881,18.2444248199463,18.2458763122559,18.2473201751709,18.248779296875,18.2502288818359,18.2516803741455,18.2531356811523,18.2545871734619,18.2560367584229,18.2574977874756,18.2589473724365,18.2603969573975,18.2618541717529,18.2633075714111,18.2647571563721,18.2662124633789,18.2676734924316,18.2691268920898,18.2705860137939,18.2720375061035,18.2734909057617,18.2749538421631,18.2764053344727,18.2778625488281,18.2793197631836,18.2807731628418,18.2822360992432,18.2836894989014,18.2851467132568,18.2866096496582,18.288064956665,18.2895221710205,18.2909851074219,18.2924385070801,18.2938995361328,18.2953567504883,18.2968139648438,18.2982749938965,18.2997360229492,18.301197052002,18.3026561737061,18.3041172027588,18.3055839538574,18.3070411682129,18.3085021972656,18.3099613189697,18.3114204406738,18.3128833770752,18.3143520355225,18.3158054351807,18.3172798156738,18.3187351226807,18.3201961517334,18.3216648101807,18.323127746582,18.3245868682861,18.3260593414307,18.3275203704834,18.3289833068848,18.3304500579834,18.3319149017334,18.3333778381348,18.334846496582,18.3363094329834,18.3377742767334,18.3392486572266,18.340705871582,18.3421726226807,18.3436450958252,18.3451137542725,18.3465785980225,18.348051071167,18.349515914917,18.3509750366211,18.3524513244629,18.3539161682129,18.3553848266602,18.356861114502,18.3583278656006,18.3597888946533,18.3612651824951,18.362735748291,18.364200592041,18.3656806945801,18.3671493530273,18.3686199188232,18.3700885772705,18.3715629577637,18.3730335235596,18.3745059967041,18.3759784698486,18.3774452209473,18.3789234161377,18.3803977966309,18.3818664550781,18.3833427429199,18.3848171234131,18.3862819671631,18.3877639770508,18.389232635498,18.3907070159912,18.3921909332275,18.3936634063721,0,0,0,0,0,0,0,0,0,0,0,0,0,0,0,0,0,0,0,0,0,0,0,0,0,0,0,0,0,0,0,0,0,0,0,0,0,0,0,0,0,0,0,0,0,0,0,0,0,0,0,0,0,0,0,0,0,0,0,0,0,0,0,0,0,0,0,0,0,0,0,0,0,0,0,0,0,0,0,0,0,0,0,0,0,0,0,0,0,0,0,0,0,0,0,0,0,0,0,0,0,0,0,0,0,0,0,0,0,0,0,0,0
17.6306838989258,17.632043838501,17.6333961486816,17.6347522735596,17.6361083984375,17.6374626159668,17.638822555542,17.6401805877686,17.6415386199951,17.642894744873,17.6442489624023,17.6456089019775,17.6469669342041,17.6483173370361,17.6496810913086,17.6510429382324,17.652400970459,17.6537551879883,17.6551189422607,17.6564750671387,17.6578369140625,17.6591968536377,17.6605491638184,17.6619071960449,17.6632766723633,17.6646327972412,17.665994644165,17.6673603057861,17.6687164306641,17.6700668334961,17.6714420318604,17.6727981567383,17.6741638183594,17.6755275726318,17.6768856048584,17.6782474517822,17.6796092987061,17.6809768676758,17.6823348999023,17.6836986541748,17.6850605010986,17.6864280700684,17.6877899169922,17.6891555786133,17.6905136108398,17.6918830871582,17.6932506561279,17.6946125030518,17.6959781646729,17.6973438262939,17.6987133026123,17.7000770568848,17.7014427185059,17.7028026580811,17.7041759490967,17.7055397033691,17.7069091796875,17.7082786560059,17.7096366882324,17.7110080718994,17.712381362915,17.7137451171875,17.7151126861572,17.716480255127,17.7178478240967,17.719217300415,17.720588684082,17.7219581604004,17.7233276367188,17.7246952056885,17.7260627746582,17.7274284362793,17.7288055419922,17.7301731109619,17.7315483093262,17.7329216003418,17.7342910766602,17.7356624603271,17.7370376586914,17.7384052276611,17.7397747039795,17.7411518096924,17.7425155639648,17.7438983917236,17.745267868042,17.7466354370117,17.7480144500732,17.7493934631348,17.7507553100586,17.7521324157715,17.7535057067871,17.7548866271973,17.756254196167,17.7576313018799,17.7590065002441,17.7603816986084,17.761754989624,17.7631301879883,17.7645015716553,17.7658843994141,17.7672595977783,17.7686347961426,17.7700157165527,17.7713947296143,17.7727603912354,17.77414894104,17.7755184173584,17.7768993377686,17.7782802581787,17.7796516418457,17.7810287475586,17.782413482666,17.7837867736816,17.7851676940918,17.7865467071533,17.7879199981689,17.7893028259277,17.7906837463379,17.7920684814453,17.7934417724609,17.7948265075684,17.7962112426758,17.7975902557373,17.7989635467529,17.800350189209,17.8017253875732,17.8031177520752,17.8044948577881,17.8058738708496,17.8072605133057,17.8086414337158,17.8100242614746,17.8114070892334,17.8127918243408,17.8141822814941,17.8155555725098,17.8169460296631,17.8183326721191,17.819709777832,17.8210945129395,17.8224830627441,17.8238639831543,17.8252506256104,17.826639175415,17.8280239105225,17.8294143676758,17.8307991027832,17.8321781158447,17.8335647583008,17.8349514007568,17.8363437652588,17.8377265930176,17.8391170501709,17.8404979705811,17.8418922424316,17.8432788848877,17.8446712493896,17.8460540771484,17.8474521636963,17.8488368988037,17.8502197265625,17.8516178131104,17.8530025482178,17.8543872833252,17.8557834625244,17.8571701049805,17.8585605621338,17.8599510192871,17.8613395690918,17.8627300262451,17.8641262054443,17.8655109405518,17.8669090270996,17.8683013916016,17.8696956634521,17.8710803985596,17.8724765777588,17.8738708496094,17.8752593994141,17.8766574859619,17.8780479431152,17.8794422149658,17.880838394165,17.8822269439697,17.8836193084717,17.8850231170654,17.8864135742188,17.8878078460693,17.8892078399658,17.8905944824219,17.8919944763184,17.8933944702148,17.8947868347168,17.8961887359619,17.8975811004639,17.8989734649658,17.900369644165,17.9017696380615,17.903169631958,17.9045639038086,17.9059619903564,17.9073619842529,17.9087581634521,17.9101543426514,17.9115581512451,17.9129543304443,17.9143562316895,17.9157524108887,17.9171524047852,17.9185581207275,17.9199542999268,17.9213542938232,17.9227542877197,17.9241504669189,17.9255542755127,17.9269542694092,17.9283561706543,17.9297618865967,17.9311656951904,17.9325637817383,17.933967590332,17.9353656768799,17.9367656707764,17.9381732940674,17.9395809173584,17.9409790039062,17.9423828125,17.9437847137451,17.9451923370361,17.9465942382812,17.9479923248291,17.9494037628174,17.9508056640625,17.9522151947021,17.9536228179932,17.9550189971924,17.9564323425293,17.9578304290771,17.9592342376709,17.9606494903564,17.9620513916016,17.9634571075439,17.9648704528809,17.9662704467773,17.9676818847656,17.9690856933594,17.9704933166504,17.97190284729,17.9733123779297,17.9747161865234,17.9761295318604,17.9775409698486,17.9789485931396,17.980354309082,17.981761932373,17.9831733703613,17.9845886230469,17.9859943389893,17.9874095916748,17.9888153076172,17.9902305603027,17.9916400909424,17.9930515289307,17.9944648742676,17.9958724975586,17.9972896575928,17.9986991882324,18.0001068115234,18.0015239715576,18.0029373168945,18.0043506622314,18.005765914917,18.0071754455566,18.0085887908936,18.010009765625,18.011417388916,18.0128383636475,18.014253616333,18.0156593322754,18.0170764923096,18.0184898376465,18.0199069976807,18.0213279724121,18.022741317749,18.0241622924805,18.0255699157715,18.0269889831543,18.0284099578857,18.0298252105713,18.0312423706055,18.032657623291,18.0340728759766,18.0354976654053,18.0369167327881,18.0383281707764,18.0397510528564,18.0411682128906,18.0425853729248,18.0440063476562,18.0454254150391,18.0468502044678,18.0482730865479,18.0496864318848,18.0511093139648,18.0525302886963,18.0539512634277,18.0553741455078,18.056791305542,18.0582084655762,18.0596351623535,18.0610618591309,18.0624828338623,18.0639038085938,18.0653266906738,18.0667514801025,18.0681705474854,18.0695972442627,18.0710220336914,18.0724411010742,18.0738677978516,18.0752944946289,18.076717376709,18.078145980835,18.0795669555664,18.0809898376465,18.0824222564697,18.0838413238525,18.0852661132812,18.0866947174072,18.0881214141846,18.0895500183105,18.0909748077393,0,0,0,0,0,0,0,0,0,0,0,0,0,0,0,0,0,0,0,0,0,0,0,0,0,0,0,0,0,0,0,0,0,0,0,0,0,0,0,0,0,0,0,0,0,0,0,0,0,0,0,0,0,0,0,0,0,0,0,0,0,0,0,0,0,0,0,0,0,0,0,0,0,0,0,0,0,0,0,0,0,0,0,0,0,0,0,0,0,0,0,0,0,0,0,0,0,0,0,0,0,0,0,0,0,0,0,0,0
17.3471546173096,17.3484706878662,17.3497848510742,17.3510875701904,17.3524055480957,17.3537178039551,17.3550281524658,17.3563480377197,17.3576545715332,17.3589668273926,17.3602848052979,17.3616008758545,17.3629150390625,17.3642272949219,17.3655433654785,17.3668556213379,17.3681697845459,17.3694820404053,17.3707962036133,17.3721199035645,17.3734359741211,17.374755859375,17.3760623931885,17.3773880004883,17.3787040710449,17.3800182342529,17.3813400268555,17.3826522827148,17.3839683532715,17.3852863311768,17.3866062164307,17.3879261016846,17.3892383575439,17.3905601501465,17.3918743133545,17.3931980133057,17.3945159912109,17.3958358764648,17.3971500396729,17.3984794616699,17.3997917175293,17.4011173248291,17.4024353027344,17.403751373291,17.4050769805908,17.4063911437988,17.4077167510986,17.4090404510498,17.4103565216064,17.4116821289062,17.4130077362061,17.4143257141113,17.4156494140625,17.416971206665,17.4182987213135,17.4196166992188,17.4209384918213,17.4222679138184,17.4235820770264,17.4249114990234,17.4262275695801,17.4275512695312,17.4288787841797,17.4302005767822,17.431526184082,17.4328594207764,17.4341812133789,17.4355049133301,17.4368305206299,17.4381561279297,17.4394798278809,17.4408149719238,17.4421367645264,17.4434585571289,17.444787979126,17.4461116790771,17.4474411010742,17.4487705230713,17.4500961303711,17.4514217376709,17.4527587890625,17.454080581665,17.4554080963135,17.4567413330078,17.458065032959,17.4593963623047,17.4607238769531,17.4620571136475,17.4633827209473,17.4647102355957,17.4660377502441,17.4673671722412,17.4687004089355,17.4700317382812,17.4713611602783,17.4726943969727,17.474027633667,17.4753551483154,17.4766864776611,17.4780158996582,17.4793453216553,17.4806823730469,17.4820156097412,17.4833469390869,17.4846839904785,17.4860134124756,17.4873485565186,17.4886817932129,17.4900131225586,17.4913501739502,17.4926853179932,17.4940128326416,17.4953517913818,17.4966850280762,17.4980220794678,17.4993495941162,17.5006904602051,17.5020236968994,17.5033550262451,17.5047073364258,17.5060367584229,17.5073680877686,17.5087089538574,17.5100479125977,17.5113773345947,17.5127201080322,17.5140552520752,17.5153942108154,17.5167255401611,17.5180702209473,17.5194053649902,17.5207462310791,17.5220794677734,17.523416519165,17.5247535705566,17.5260963439941,17.527437210083,17.5287780761719,17.5301151275635,17.5314521789551,17.5327930450439,17.5341358184814,17.5354766845703,17.5368213653564,17.538158416748,17.5395011901855,17.5408401489258,17.5421810150146,17.5435276031494,17.5448722839355,17.5462074279785,17.5475540161133,17.5488948822021,17.5502338409424,17.5515823364258,17.552921295166,17.5542621612549,17.5556087493896,17.5569553375244,17.5582981109619,17.5596408843994,17.5609893798828,17.5623378753662,17.5636749267578,17.5650196075439,17.5663661956787,17.5677127838135,17.5690593719482,17.570405960083,17.5717506408691,17.5730934143066,17.5744400024414,17.5757904052734,17.5771331787109,17.5784854888916,17.5798377990723,17.5811805725098,17.5825214385986,17.5838756561279,17.5852241516113,17.5865726470947,17.5879192352295,17.5892677307129,17.5906181335449,17.591968536377,17.5933170318604,17.5946617126465,17.5960140228271,17.5973644256592,17.5987167358398,17.6000671386719,17.6014175415039,17.6027641296387,17.604118347168,17.6054668426514,17.6068153381348,17.6081676483154,17.6095237731934,17.610876083374,17.6122303009033,17.6135807037354,17.6149311065674,17.6162929534912,17.6176414489746,17.6189880371094,17.6203460693359,17.6217021942139,17.6230487823486,17.6244106292725,17.6257629394531,17.6271190643311,17.6284694671631,17.6298294067383,17.6311798095703,17.6325397491455,17.6338901519775,17.6352500915527,17.6366024017334,17.6379585266113,17.6393146514893,17.6406745910645,17.6420307159424,17.6433849334717,17.6447429656982,17.6461048126221,17.6474609375,17.6488208770752,17.6501808166504,17.6515350341797,17.6528949737549,17.6542491912842,17.6556072235107,17.6569747924805,17.6583271026611,17.6596908569336,17.6610488891602,17.6624088287354,17.6637687683105,17.665132522583,17.6664905548096,17.6678504943848,17.6692123413086,17.6705722808838,17.6719341278076,17.6732959747314,17.6746559143066,17.6760177612305,17.6773853302002,17.6787452697754,17.6801052093506,17.6814727783203,17.6828384399414,17.6841926574707,17.6855602264404,17.6869201660156,17.6882839202881,17.6896572113037,17.6910171508789,17.6923809051514,17.6937465667725,17.6951122283936,17.6964740753174,17.697847366333,17.6992053985596,17.7005710601807,17.701940536499,17.7033061981201,17.7046699523926,17.7060375213623,17.7074108123779,17.7087707519531,17.7101440429688,17.7115077972412,17.7128734588623,17.7142448425293,17.7156143188477,17.7169818878174,17.7183513641357,17.7197208404541,17.7210903167725,17.7224636077881,17.7238254547119,17.7251968383789,17.7265663146973,17.7279357910156,17.7293109893799,17.730676651001,17.7320518493652,17.7334232330322,17.7347946166992,17.736156463623,17.7375373840332,17.7389087677002,17.7402801513672,17.7416515350342,17.7430210113525,17.7443962097168,17.7457714080811,17.7471446990967,17.7485122680664,17.7498893737793,17.7512626647949,17.7526340484619,17.7540111541748,17.7553825378418,17.7567596435547,17.7581348419189,17.7595138549805,17.7608814239502,17.762264251709,17.7636375427246,17.7650089263916,17.7663879394531,17.7677631378174,17.7691383361816,17.7705211639404,17.7718982696533,17.7732677459717,17.7746486663818,17.7760257720947,17.777400970459,17.7787837982178,17.7801551818848,17.7815399169922,17.7829170227051,17.7842998504639,17.7856712341309,17.7870540618896,17.7884349822998,17.7898101806641,17.7911911010742,17.7925701141357,17.7939510345459,17.7953319549561,17.7967166900635,17.7980899810791,17.7994766235352,0,0,0,0,0,0,0,0,0,0,0,0,0,0,0,0,0,0,0,0,0,0,0,0,0,0,0,0,0,0,0,0,0,0,0,0,0,0,0,0,0,0,0,0,0,0,0,0,0,0,0,0,0,0,0,0,0,0,0,0,0,0,0,0,0,0,0,0,0,0,0,0,0,0,0,0,0,0,0,0,0,0,0,0,0,0,0,0,0,0,0,0,0,0,0,0,0,0,0,0,0,0,0,0
17.0725955963135,17.0738639831543,17.0751399993896,17.0764102935791,17.0776805877686,17.0789585113525,17.0802230834961,17.0814952850342,17.0827770233154,17.084041595459,17.0853080749512,17.0865840911865,17.0878582000732,17.0891342163086,17.0904121398926,17.091682434082,17.0929508209229,17.0942306518555,17.0955028533936,17.0967807769775,17.0980491638184,17.0993232727051,17.1006011962891,17.1018733978271,17.1031532287598,17.1044216156006,17.1056957244873,17.1069774627686,17.1082534790039,17.1095218658447,17.1108016967773,17.1120853424072,17.1133556365967,17.1146373748779,17.1159229278564,17.1171875,17.1184692382812,17.1197509765625,17.1210308074951,17.1223030090332,17.1235790252686,17.1248607635498,17.1261329650879,17.1274166107178,17.1287021636963,17.1299705505371,17.1312503814697,17.1325302124023,17.1338119506836,17.1350936889648,17.1363754272461,17.1376476287842,17.1389389038086,17.1402225494385,17.1414928436279,17.1427803039551,17.144063949585,17.1453418731689,17.1466293334961,17.1479091644287,17.1491851806641,17.1504688262939,17.1517562866211,17.1530323028564,17.1543216705322,17.1555976867676,17.1568870544434,17.158166885376,17.1594524383545,17.1607360839844,17.1620178222656,17.1633071899414,17.1645851135254,17.1658744812012,17.1671581268311,17.1684455871582,17.1697254180908,17.1710109710693,17.1722927093506,17.1735820770264,17.1748733520508,17.1761531829834,17.1774501800537,17.178731918335,17.1800098419189,17.1813106536865,17.1825866699219,17.1838760375977,17.1851634979248,17.1864490509033,17.1877384185791,17.1890296936035,17.1903114318848,17.1915988922119,17.1928958892822,17.1941814422607,17.1954746246338,17.1967601776123,17.1980476379395,17.1993370056152,17.200626373291,17.2019214630127,17.2032051086426,17.2045021057129,17.2057933807373,17.2070808410645,17.2083740234375,17.2096672058105,17.2109546661377,17.2122497558594,17.2135372161865,17.2148246765137,17.216121673584,17.2174091339111,17.2187042236328,17.2200031280518,17.2212944030762,17.2225914001465,17.2238788604736,17.2251720428467,17.2264614105225,17.2277603149414,17.2290496826172,17.2303428649902,17.2316493988037,17.2329387664795,17.2342338562012,17.235523223877,17.2368221282959,17.2381153106689,17.2394180297852,17.2407112121582,17.242000579834,17.2433052062988,17.2446022033691,17.2458915710449,17.2471942901611,17.2484855651855,17.24977684021,17.2510871887207,17.2523822784424,17.2536754608154,17.254976272583,17.2562789916992,17.2575740814209,17.2588691711426,17.2601680755615,17.2614669799805,17.2627696990967,17.2640628814697,17.2653713226318,17.2666645050049,17.2679672241211,17.2692623138428,17.270565032959,17.2718696594238,17.2731685638428,17.274471282959,17.2757720947266,17.2770671844482,17.2783794403076,17.2796764373779,17.2809791564941,17.2822818756104,17.2835788726807,17.2848796844482,17.2861862182617,17.2874870300293,17.28879737854,17.2901000976562,17.2913990020752,17.2927074432373,17.2940063476562,17.2953109741211,17.2966175079346,17.2979221343994,17.2992210388184,17.3005313873291,17.3018341064453,17.3031406402588,17.3044471740723,17.3057479858398,17.3070602416992,17.3083648681641,17.3096694946289,17.3109741210938,17.3122787475586,17.3135871887207,17.3148899078369,17.3162002563477,17.3175086975098,17.3188152313232,17.3201274871826,17.3214282989502,17.3227386474609,17.3240566253662,17.3253574371338,17.3266620635986,17.3279762268066,17.3292827606201,17.3305988311768,17.3319110870361,17.3332138061523,17.3345260620117,17.3358345031738,17.3371467590332,17.3384571075439,17.3397655487061,17.3410758972168,17.3423900604248,17.3437023162842,17.3450126647949,17.3463249206543,17.3476390838623,17.3489532470703,17.3502540588379,17.3515758514404,17.3528842926025,17.3541927337646,17.3555145263672,17.3568286895752,17.3581352233887,17.3594532012939,17.360767364502,17.36208152771,17.363395690918,17.3647079467773,17.3660221099854,17.3673419952393,17.36865234375,17.3699722290039,17.3712863922119,17.372594833374,17.3739128112793,17.3752288818359,17.3765449523926,17.3778591156006,17.3791790008545,17.3804969787598,17.381814956665,17.3831329345703,17.3844451904297,17.3857669830322,17.3870868682861,17.3884048461914,17.3897171020508,17.3910427093506,17.3923587799072,17.3936729431152,17.3949947357178,17.3963184356689,17.3976383209229,17.3989562988281,17.4002780914307,17.4015979766846,17.4029159545898,17.4042320251465,17.4055576324463,17.4068832397461,17.4082012176514,17.4095249176025,17.4108448028564,17.4121685028076,17.4134826660156,17.4148063659668,17.416130065918,17.4174499511719,17.4187755584717,17.4200992584229,17.4214191436768,17.4227428436279,17.4240665435791,17.4253902435303,17.4267177581787,17.428035736084,17.4293670654297,17.4306869506836,17.432014465332,17.4333381652832,17.434663772583,17.4359874725342,17.4373149871826,17.4386405944824,17.4399681091309,17.4412899017334,17.4426193237305,17.443941116333,17.4452705383301,17.4465999603271,17.4479293823242,17.4492588043213,17.4505844116211,17.4519100189209,17.4532375335693,17.4545631408691,17.4558963775635,17.4572277069092,17.458553314209,17.4598808288574,17.4612102508545,17.4625415802002,17.4638690948486,17.465202331543,17.4665279388428,17.4678516387939,17.4691886901855,17.4705200195312,17.4718456268311,17.4731884002686,17.4745121002197,17.4758415222168,17.4771785736084,17.4785079956055,17.4798393249512,17.4811744689941,17.4825038909912,17.4838371276855,17.4851703643799,17.4865016937256,17.4878330230713,17.4891719818115,17.4905071258545,17.4918346405029,17.4931716918945,17.4945049285889,17.4958343505859,17.4971809387207,17.4985065460205,17.4998397827148,17.5011768341064,17.5025119781494,17.5038433074951,17.5051937103271,17.5065269470215,17.5078582763672,17.5091934204102,17.510534286499,17.5118713378906,17.5132083892822,17.5145454406738,17.5158805847168,0,0,0,0,0,0,0,0,0,0,0,0,0,0,0,0,0,0,0,0,0,0,0,0,0,0,0,0,0,0,0,0,0,0,0,0,0,0,0,0,0,0,0,0,0,0,0,0,0,0,0,0,0,0,0,0,0,0,0,0,0,0,0,0,0,0,0,0,0,0,0,0,0,0,0,0,0,0,0,0,0,0,0,0,0,0,0,0,0,0,0,0,0,0,0,0,0,0,0,0
16.8065986633301,16.8078289031982,16.8090534210205,16.8102893829346,16.8115253448486,16.8127517700195,16.8139839172363,16.8152256011963,16.8164482116699,16.8176803588867,16.8189182281494,16.8201541900635,16.821382522583,16.8226280212402,16.8238506317139,16.8250865936279,16.8263263702393,16.8275585174561,16.8287887573242,16.8300304412842,16.8312644958496,16.8324947357178,16.8337383270264,16.8349723815918,16.8362045288086,16.8374423980713,16.8386783599854,16.8399124145508,16.8411521911621,16.8423881530762,16.8436183929443,16.8448638916016,16.8461017608643,16.8473320007324,16.8485717773438,16.8498115539551,16.8510494232178,16.8522815704346,16.8535232543945,16.8547687530518,16.8559989929199,16.857234954834,16.8584804534912,16.8597164154053,16.8609600067139,16.8621940612793,16.8634338378906,16.864673614502,16.8659229278564,16.867151260376,16.8683929443359,16.8696422576904,16.8708801269531,16.8721199035645,16.8733615875244,16.8746070861816,16.8758487701416,16.8770904541016,16.8783283233643,16.879566192627,16.8808155059814,16.8820571899414,16.8832969665527,16.8845405578613,16.8857879638672,16.8870220184326,16.8882751464844,16.8895111083984,16.890754699707,16.8920021057129,16.8932456970215,16.8944873809814,16.8957386016846,16.8969783782959,16.8982238769531,16.8994731903076,16.9007205963135,16.9019546508789,16.9032115936279,16.9044551849365,16.9056968688965,16.9069423675537,16.9081916809082,16.9094352722168,16.9106845855713,16.9119319915771,16.9131736755371,16.9144229888916,16.9156646728516,16.9169158935547,16.9181671142578,16.9194164276123,16.9206638336182,16.921911239624,16.9231586456299,16.924409866333,16.9256572723389,16.926908493042,16.9281597137451,16.9294090270996,16.9306545257568,16.9319000244141,16.9331588745117,16.9344043731689,16.9356479644775,16.9369049072266,16.9381542205811,16.9394092559814,16.9406566619873,16.9419097900391,16.9431610107422,16.9444141387939,16.9456672668457,16.9469203948975,16.948169708252,16.9494228363037,16.9506797790527,16.9519290924072,16.9531860351562,16.9544258117676,16.9556884765625,16.9569396972656,16.9581909179688,16.9594459533691,16.9606971740723,16.9619560241699,16.9632129669189,16.9644603729248,16.9657154083252,16.9669742584229,16.9682273864746,16.9694766998291,16.9707431793213,16.971996307373,16.9732532501221,16.9745082855225,16.9757671356201,16.9770183563232,16.9782829284668,16.9795303344727,16.9807891845703,16.9820499420166,16.9833106994629,16.984561920166,16.9858226776123,16.9870796203613,16.988338470459,16.9895973205566,16.9908504486084,16.9921092987061,16.9933815002441,16.99462890625,16.9958896636963,16.9971523284912,16.9984035491943,16.9996662139893,17.0009346008301,17.0021858215332,17.0034484863281,17.0047092437744,17.0059700012207,17.007230758667,17.0084953308105,17.0097579956055,17.0110168457031,17.0122833251953,17.0135383605957,17.0148029327393,17.0160675048828,17.0173301696777,17.0185871124268,17.0198516845703,17.0211162567139,17.0223770141602,17.0236492156982,17.0249080657959,17.0261726379395,17.0274391174316,17.0286960601807,17.0299625396729,17.0312271118164,17.0324897766113,17.033763885498,17.0350246429443,17.0362873077393,17.0375576019287,17.038818359375,17.0400867462158,17.0413551330566,17.0426139831543,17.0438785552979,17.0451545715332,17.0464191436768,17.0476856231689,17.0489501953125,17.0502185821533,17.0514850616455,17.0527515411377,17.0540218353271,17.0552864074707,17.0565643310547,17.0578308105469,17.0590915679932,17.0603637695312,17.0616340637207,17.0628986358643,17.0641689300537,17.0654430389404,17.0667152404785,17.067985534668,17.0692501068115,17.0705184936523,17.0717964172363,17.0730628967285,17.0743312835693,17.0756072998047,17.0768756866455,17.0781517028809,17.0794239044189,17.0806865692139,17.0819625854492,17.0832328796387,17.0845031738281,17.0857772827148,17.0870532989502,17.0883235931396,17.089599609375,17.0908756256104,17.0921459197998,17.0934200286865,17.0946941375732,17.0959701538086,17.0972385406494,17.0985240936279,17.0997943878174,17.1010646820068,17.1023464202881,17.1036148071289,17.1048908233643,17.1061706542969,17.1074447631836,17.1087226867676,17.1099987030029,17.1112728118896,17.1125450134277,17.113826751709,17.1150989532471,17.116382598877,17.1176586151123,17.1189365386963,17.120210647583,17.1214923858643,17.1227741241455,17.1240482330322,17.1253242492676,17.1266078948975,17.1278820037842,17.1291637420654,17.1304473876953,17.1317195892334,17.132999420166,17.1342811584473,17.1355571746826,17.1368465423584,17.1381244659424,17.1394062042236,17.1406841278076,17.1419677734375,17.1432437896729,17.1445331573486,17.1458053588867,17.1470928192139,17.1483764648438,17.149658203125,17.1509399414062,17.1522254943848,17.1535053253174,17.1547813415527,17.1560668945312,17.1573524475098,17.158634185791,17.1599197387695,17.1612033843994,17.1624851226807,17.1637744903564,17.1650562286377,17.1663360595703,17.1676254272461,17.1689109802246,17.1701965332031,17.1714839935303,17.1727676391602,17.1740550994873,17.1753387451172,17.176628112793,17.1779117584229,17.1792011260986,17.1804809570312,17.1817741394043,17.1830596923828,17.1843490600586,17.1856346130371,17.1869201660156,17.1882076263428,17.1895008087158,17.1907863616943,17.1920776367188,17.1933670043945,17.194652557373,17.1959419250488,17.197229385376,17.198522567749,17.1998081207275,17.2011051177979,17.202392578125,17.2036781311035,17.2049713134766,17.2062664031982,17.2075519561768,17.2088451385498,17.210132598877,17.2114238739014,17.2127208709717,17.2140121459961,17.2152996063232,17.2165966033936,17.2178840637207,17.219181060791,17.2204742431641,17.2217655181885,17.2230529785156,17.2243537902832,17.225643157959,17.2269382476807,17.228235244751,17.2295265197754,17.2308254241943,17.232120513916,17.2334079742432,17.2347049713135,17.2360057830811,17.2372932434082,17.2385864257812,17.2398910522461,17.2411804199219,0,0,0,0,0,0,0,0,0,0,0,0,0,0,0,0,0,0,0,0,0,0,0,0,0,0,0,0,0,0,0,0,0,0,0,0,0,0,0,0,0,0,0,0,0,0,0,0,0,0,0,0,0,0,0,0,0,0,0,0,0,0,0,0,0,0,0,0,0,0,0,0,0,0,0,0,0,0,0,0,0,0,0,0,0,0,0,0,0,0,0,0,0,0,0,0
16.548755645752,16.5499534606934,16.5511493682861,16.5523376464844,16.5535297393799,16.5547332763672,16.5559215545654,16.5571212768555,16.5583114624023,16.5595092773438,16.5607013702393,16.5619010925293,16.5630931854248,16.5642910003662,16.5654850006104,16.5666847229004,16.5678787231445,16.5690784454346,16.5702724456787,16.5714721679688,16.5726680755615,16.5738754272461,16.5750598907471,16.5762596130371,16.5774669647217,16.5786590576172,16.57985496521,16.5810623168945,16.5822563171387,16.5834503173828,16.5846538543701,16.5858478546143,16.5870513916016,16.5882549285889,16.5894508361816,16.590648651123,16.5918521881104,16.593053817749,16.5942535400391,16.5954494476318,16.5966529846191,16.5978488922119,16.5990543365479,16.6002578735352,16.6014537811279,16.6026573181152,16.6038627624512,16.6050586700439,16.6062679290771,16.6074714660645,16.6086692810059,16.6098766326904,16.6110782623291,16.6122894287109,16.6134853363037,16.6146926879883,16.6158962249756,16.617094039917,16.6182956695557,16.6195011138916,16.6207084655762,16.6219100952148,16.6231155395508,16.6243228912354,16.625524520874,16.6267433166504,16.6279354095459,16.6291408538818,16.6303558349609,16.6315631866455,16.6327610015869,16.6339721679688,16.6351757049561,16.6363754272461,16.6375923156738,16.6387958526611,16.6399974822998,16.6412105560303,16.6424198150635,16.6436233520508,16.6448364257812,16.6460456848145,16.6472434997559,16.6484603881836,16.6496658325195,16.6508712768555,16.6520843505859,16.6532897949219,16.6545009613037,16.6557140350342,16.6569232940674,16.6581363677979,16.6593322753906,16.6605491638184,16.6617565155029,16.6629753112793,16.6641788482666,16.6653881072998,16.6666011810303,16.6678104400635,16.6690216064453,16.6702423095703,16.6714496612549,16.6726589202881,16.6738739013672,16.6750812530518,16.6762924194336,16.67751121521,16.6787185668945,16.679931640625,16.6811408996582,16.6823577880859,16.6835708618164,16.6847858428955,16.6860008239746,16.6872100830078,16.6884288787842,16.6896438598633,16.6908531188965,16.692081451416,16.693286895752,16.6944980621338,16.6957206726074,16.6969337463379,16.6981525421143,16.6993618011475,16.7005786895752,16.7017974853516,16.7030086517334,16.704231262207,16.7054386138916,16.7066650390625,16.7078838348389,16.709098815918,16.7103118896484,16.7115306854248,16.7127494812012,16.7139625549316,16.7151832580566,16.7164001464844,16.7176170349121,16.7188377380371,16.7200584411621,16.7212829589844,16.7224998474121,16.7237205505371,16.7249374389648,16.7261543273926,16.7273712158203,16.7285976409912,16.7298164367676,16.7310371398926,16.7322521209717,16.733470916748,16.7346973419189,16.7359199523926,16.7371406555176,16.7383575439453,16.7395820617676,16.7408046722412,16.7420253753662,16.7432518005371,16.7444686889648,16.7456893920898,16.7469215393066,16.7481460571289,16.7493629455566,16.7505874633789,16.7518081665039,16.7530307769775,16.7542591094971,16.7554779052734,16.7567043304443,16.7579307556152,16.7591514587402,16.7603778839111,16.761604309082,16.7628231048584,16.7640476226807,16.7652778625488,16.7665042877197,16.767728805542,16.7689552307129,16.7701835632324,16.7714042663574,16.7726345062256,16.7738647460938,16.7750873565674,16.776309967041,16.7775440216064,16.7787666320801,16.7799987792969,16.7812232971191,16.78244972229,16.7836818695068,16.7849102020264,16.7861366271973,16.7873649597168,16.7885913848877,16.7898292541504,16.7910499572754,16.7922763824463,16.7935123443604,16.7947425842285,16.7959651947021,16.7972030639648,16.7984313964844,16.7996578216553,16.800895690918,16.8021221160889,16.803352355957,16.8045845031738,16.8058128356934,16.8070468902588,16.8082809448242,16.809513092041,16.8107414245605,16.8119773864746,16.8132095336914,16.8144397735596,16.8156700134277,16.8169116973877,16.8181381225586,16.819372177124,16.8206024169922,16.8218383789062,16.8230743408203,16.8243064880371,16.8255405426025,16.826774597168,16.8280143737793,16.8292446136475,16.8304786682129,16.8317165374756,16.8329467773438,16.8341846466064,16.8354206085205,16.8366603851318,16.8378944396973,16.8391265869141,16.8403644561768,16.8416061401367,16.8428382873535,16.8440742492676,16.8453121185303,16.8465557098389,16.8477840423584,16.849027633667,16.8502635955811,16.8514995574951,16.8527431488037,16.8539791107178,16.8552150726318,16.8564586639404,16.8576927185059,16.8589267730713,16.8601760864258,16.8614101409912,16.8626499176025,16.8638877868652,16.8651275634766,16.8663692474365,16.8676147460938,16.8688488006592,16.8700885772705,16.8713302612305,16.8725776672363,16.8738193511963,16.8750591278076,16.8763027191162,16.8775367736816,16.8787822723389,16.8800239562988,16.8812618255615,16.882511138916,16.8837509155273,16.8849945068359,16.8862400054932,16.8874835968018,16.8887214660645,16.8899707794189,16.8912143707275,16.8924541473389,16.8936996459961,16.894947052002,16.8961887359619,16.8974361419678,16.8986835479736,16.899923324585,16.9011688232422,16.9024124145508,16.9036598205566,16.9049110412598,16.906156539917,16.907398223877,16.9086456298828,16.90989112854,16.9111404418945,16.9123878479004,16.9136295318604,16.9148750305176,16.9161319732666,16.9173717498779,16.9186172485352,16.9198722839355,16.9211177825928,16.92236328125,16.923620223999,16.9248600006104,16.9261112213135,16.9273624420166,16.9286098480225,16.929859161377,16.931116104126,16.9323596954346,16.9336128234863,16.9348640441895,16.9361133575439,16.9373626708984,16.9386138916016,16.939868927002,16.9411163330078,16.9423694610596,16.9436225891113,16.9448680877686,16.9461250305176,16.9473743438721,16.9486274719238,16.949878692627,16.9511318206787,16.9523830413818,16.9536399841309,16.954891204834,16.9561462402344,16.9573974609375,16.958646774292,16.9599056243896,16.9611644744873,16.9624118804932,16.9636707305908,16.9649276733398,16.9661808013916,16.967435836792,16.9686889648438,16.9699459075928,16.9712047576904,16.9724578857422,16.9737129211426,16.9749660491943,16.9762268066406,0,0,0,0,0,0,0,0,0,0,0,0,0,0,0,0,0,0,0,0,0,0,0,0,0,0,0,0,0,0,0,0,0,0,0,0,0,0,0,0,0,0,0,0,0,0,0,0,0,0,0,0,0,0,0,0,0,0,0,0,0,0,0,0,0,0,0,0,0,0,0,0,0,0,0,0,0,0,0,0,0,0,0,0,0,0,0,0,0,0,0
16.2987098693848,16.2998695373535,16.3010330200195,16.3021869659424,16.3033409118652,16.3045024871826,16.3056640625,16.3068180084229,16.3079872131348,16.3091430664062,16.3102970123291,16.3114604949951,16.3126239776611,16.313777923584,16.31494140625,16.3161029815674,16.3172588348389,16.3184223175049,16.3195858001709,16.3207416534424,16.321907043457,16.3230628967285,16.3242301940918,16.3253917694092,16.3265552520752,16.3277168273926,16.3288764953613,16.3300399780273,16.3312034606934,16.3323650360107,16.3335285186768,16.3346920013428,16.3358516693115,16.3370170593262,16.3381805419922,16.33935546875,16.3405132293701,16.3416709899902,16.342845916748,16.3439998626709,16.3451709747314,16.3463401794434,16.3474922180176,16.3486633300781,16.3498268127441,16.3509883880615,16.3521575927734,16.353328704834,16.3544883728027,16.355655670166,16.3568267822266,16.3579883575439,16.3591537475586,16.3603248596191,16.3614921569824,16.3626594543457,16.3638248443604,16.3649940490723,16.3661556243896,16.3673343658447,16.3684959411621,16.3696575164795,16.3708305358887,16.3720073699951,16.3731632232666,16.3743362426758,16.3755054473877,16.3766746520996,16.3778495788574,16.3790225982666,16.3801898956299,16.3813571929932,16.3825283050537,16.3836994171143,16.3848686218262,16.3860340118408,16.3872108459473,16.3883800506592,16.3895530700684,16.3907241821289,16.3918876647949,16.3930606842041,16.3942413330078,16.3954029083252,16.3965835571289,16.3977489471436,16.3989276885986,16.4001026153564,16.4012756347656,16.4024467468262,16.4036140441895,16.4047966003418,16.4059677124023,16.4071369171143,16.4083137512207,16.4094905853271,16.4106540679932,16.4118309020996,16.4130096435547,16.4141826629639,16.4153633117676,16.4165363311768,16.4177131652832,16.4188842773438,16.4200592041016,16.4212303161621,16.4224090576172,16.423583984375,16.4247627258301,16.4259414672852,16.427116394043,16.4282913208008,16.4294700622559,16.4306449890137,16.4318180084229,16.4329986572266,16.434175491333,16.4353504180908,16.4365310668945,16.4377155303955,16.4388885498047,16.4400653839111,16.4412441253662,16.4424266815186,16.443603515625,16.4447822570801,16.4459571838379,16.4471397399902,16.4483203887939,16.449499130249,16.4506816864014,16.4518547058105,16.4530391693115,16.4542236328125,16.4553985595703,16.4565715789795,16.457763671875,16.4589405059814,16.4601192474365,16.4613037109375,16.4624862670898,16.4636611938477,16.4648475646973,16.4660320281982,16.4672050476074,16.4683990478516,16.4695720672607,16.4707546234131,16.4719429016113,16.4731273651123,16.4743099212646,16.475492477417,16.476676940918,16.4778633117676,16.4790477752686,16.4802265167236,16.481409072876,16.482593536377,16.4837818145752,16.4849624633789,16.4861545562744,16.4873352050781,16.4885139465332,16.4897060394287,16.4908885955811,16.4920768737793,16.4932632446289,16.494441986084,16.4956302642822,16.4968242645264,16.498010635376,16.4991970062256,16.5003814697266,16.5015621185303,16.5027561187744,16.5039463043213,16.5051307678223,16.5063190460205,16.5075092315674,16.5086994171143,16.5098838806152,16.5110721588135,16.5122604370117,16.5134468078613,16.5146427154541,16.5158252716064,16.517017364502,16.5182132720947,16.5193958282471,16.5205841064453,16.5217781066895,16.5229663848877,16.5241584777832,16.5253448486328,16.5265350341797,16.5277309417725,16.5289192199707,16.5301113128662,16.5312995910645,16.53249168396,16.5336875915527,16.5348796844482,16.5360698699951,16.5372619628906,16.5384540557861,16.539644241333,16.540843963623,16.5420322418213,16.5432319641113,16.5444164276123,16.5456123352051,16.5468082427979,16.5479946136475,16.5491962432861,16.5503902435303,16.5515823364258,16.5527782440186,16.5539665222168,16.5551681518555,16.5563659667969,16.5575561523438,16.558744430542,16.5599517822266,16.5611381530762,16.5623378753662,16.5635395050049,16.564733505249,16.5659294128418,16.5671234130859,16.568323135376,16.5695171356201,16.5707168579102,16.5719108581543,16.5731067657471,16.5743045806885,16.5755062103271,16.5767021179199,16.5779037475586,16.5791034698486,16.5802955627441,16.5814990997314,16.5826950073242,16.583890914917,16.5850944519043,16.5862922668457,16.5874919891357,16.5886917114258,16.5898933410645,16.5910892486572,16.5922908782959,16.5934963226318,16.5946922302246,16.5958957672119,16.5970916748047,16.5982971191406,16.5994987487793,16.600700378418,16.6018924713135,16.6031036376953,16.6043033599854,16.6055068969727,16.60671043396,16.6079120635986,16.60910987854,16.610315322876,16.6115207672119,16.6127185821533,16.6139335632324,16.6151256561279,16.616325378418,16.6175403594971,16.6187419891357,16.6199417114258,16.621150970459,16.6223526000977,16.6235599517822,16.6247673034668,16.6259651184082,16.6271724700928,16.6283855438232,16.6295833587646,16.630786895752,16.6319980621338,16.6332035064697,16.6344051361084,16.6356163024902,16.6368236541748,16.6380252838135,16.6392402648926,16.6404418945312,16.6416492462158,16.6428661346436,16.6440677642822,16.6452732086182,16.6464824676514,16.6476917266846,16.6488952636719,16.650110244751,16.6513118743896,16.6525192260742,16.6537322998047,16.6549396514893,16.6561508178711,16.6573677062988,16.6585712432861,16.6597805023193,16.6609935760498,16.6622009277344,16.6634082794189,16.6646270751953,16.6658306121826,16.6670398712158,16.6682529449463,16.6694660186768,16.6706733703613,16.6718902587891,16.6730995178223,16.6743144989014,16.6755256652832,16.676736831665,16.6779518127441,16.6791667938232,16.6803798675537,16.681583404541,16.682804107666,16.6840171813965,16.685230255127,16.6864471435547,16.6876544952393,16.6888771057129,16.6900901794434,16.6912994384766,16.6925144195557,16.6937294006348,16.6949462890625,16.6961650848389,16.6973819732666,16.6985950469971,16.6998138427734,16.7010250091553,16.7022380828857,16.7034568786621,16.7046756744385,16.7058925628662,16.7071056365967,16.7083263397217,16.7095394134521,16.7107639312744,16.7119808197021,16.713191986084,16.7144184112549,16.7156295776367,16.7168464660645,16.7180671691895,0,0,0,0,0,0,0,0,0,0,0,0,0,0,0,0,0,0,0,0,0,0,0,0,0,0,0,0,0,0,0,0,0,0,0,0,0,0,0,0,0,0,0,0,0,0,0,0,0,0,0,0,0,0,0,0,0,0,0,0,0,0,0,0,0,0,0,0,0,0,0,0,0,0,0,0,0,0,0,0,0,0,0,0,0,0,0
16.0561008453369,16.0572299957275,16.058349609375,16.0594711303711,16.0606060028076,16.0617256164551,16.0628547668457,16.0639839172363,16.0651035308838,16.0662326812744,16.0673599243164,16.0684795379639,16.0696029663086,16.0707378387451,16.0718574523926,16.0729808807373,16.0741138458252,16.0752334594727,16.0763626098633,16.0774917602539,16.0786228179932,16.0797462463379,16.0808753967285,16.0820007324219,16.0831241607666,16.0842590332031,16.0853843688965,16.0865077972412,16.0876426696777,16.0887680053711,16.0898914337158,16.0910263061523,16.0921592712402,16.093282699585,16.094409942627,16.0955429077148,16.0966720581055,16.0978012084961,16.098934173584,16.1000633239746,16.1011924743652,16.1023178100586,16.1034526824951,16.1045837402344,16.1057147979736,16.1068458557129,16.1079750061035,16.1091060638428,16.110237121582,16.1113739013672,16.1124992370605,16.1136302947998,16.1147708892822,16.1158905029297,16.1170272827148,16.1181621551514,16.1192970275879,16.1204280853271,16.1215629577637,16.1226902008057,16.1238250732422,16.1249694824219,16.1260890960693,16.1272277832031,16.128360748291,16.1294975280762,16.1306266784668,16.131763458252,16.1328983306885,16.1340351104736,16.1351699829102,16.136302947998,16.1374359130859,16.138578414917,16.1397132873535,16.1408443450928,16.1419811248779,16.1431198120117,16.1442451477051,16.1453895568848,16.1465301513672,16.1476631164551,16.1487979888916,16.149938583374,16.151065826416,16.152214050293,16.1533508300781,16.1544952392578,16.1556262969971,16.1567668914795,16.1579074859619,16.1590442657471,16.1601867675781,16.1613254547119,16.1624565124512,16.1635971069336,16.164737701416,16.1658763885498,16.1670188903809,16.1681594848633,16.1692905426025,16.1704368591309,16.1715793609619,16.1727161407471,16.1738529205322,16.1749992370605,16.1761360168457,16.1772747039795,16.1784229278564,16.1795597076416,16.1806983947754,16.1818447113037,16.182991027832,16.1841278076172,16.1852684020996,16.1864147186279,16.1875514984131,16.1887016296387,16.1898326873779,16.190975189209,16.1921253204346,16.193265914917,16.194408416748,16.1955509185791,16.1966972351074,16.1978397369385,16.1989784240723,16.2001266479492,16.2012767791748,16.20241355896,16.2035598754883,16.204704284668,16.2058506011963,16.2069969177246,16.2081413269043,16.209285736084,16.2104339599609,16.2115783691406,16.2127285003662,16.2138710021973,16.2150192260742,16.2161674499512,16.2173042297363,16.2184562683105,16.2196025848389,16.2207508087158,16.2218914031982,16.2230434417725,16.224193572998,16.2253379821777,16.2264919281006,16.2276363372803,16.2287845611572,16.2299346923828,16.2310771942139,16.2322254180908,16.2333812713623,16.234525680542,16.2356796264648,16.2368335723877,16.2379760742188,16.2391262054443,16.2402801513672,16.2414245605469,16.2425727844238,16.2437286376953,16.2448787689209,16.2460269927979,16.2471809387207,16.2483310699463,16.2494773864746,16.2506313323975,16.2517833709717,16.2529315948486,16.254093170166,16.2552356719971,16.2563877105713,16.25754737854,16.2586975097656,16.2598457336426,16.2610054016113,16.2621574401855,16.2633056640625,16.2644596099854,16.2656154632568,16.2667636871338,16.2679252624512,16.2690715789795,16.270227432251,16.2713851928711,16.2725410461426,16.2736911773682,16.2748508453369,16.2760028839111,16.2771530151367,16.2783069610596,16.2794666290283,16.2806243896484,16.2817802429199,16.2829360961914,16.2840919494629,16.2852458953857,16.2863998413086,16.2875537872314,16.2887172698975,16.2898769378662,16.2910270690918,16.2921886444092,16.2933464050293,16.2944984436035,16.2956638336182,16.2968139648438,16.2979736328125,16.2991352081299,16.3002891540527,16.3014469146729,16.3026103973389,16.3037662506104,16.3049259185791,16.3060836791992,16.3072490692139,16.3084087371826,16.3095664978027,16.3107280731201,16.3118858337402,16.3130435943604,16.3142032623291,16.3153648376465,16.3165264129639,16.3176898956299,16.3188495635986,16.3200073242188,16.3211669921875,16.3223323822021,16.3234939575195,16.3246536254883,16.3258228302002,16.3269786834717,16.3281364440918,16.3293056488037,16.3304653167725,16.3316326141357,16.3327980041504,16.3339500427246,16.3351154327393,16.3362808227539,16.3374423980713,16.3386058807373,16.3397769927979,16.3409366607666,16.342098236084,16.3432655334473,16.3444271087646,16.3455963134766,16.3467597961426,16.3479270935059,16.349084854126,16.3502559661865,16.3514232635498,16.3525867462158,16.3537540435791,16.354923248291,16.3560829162598,16.3572540283203,16.3584175109863,16.3595848083496,16.3607540130615,16.3619213104248,16.3630905151367,16.3642559051514,16.365421295166,16.3665885925293,16.3677616119385,16.3689231872559,16.3700904846191,16.3712615966797,16.3724346160889,16.3735961914062,16.3747730255127,16.3759365081787,16.3771057128906,16.3782806396484,16.3794498443604,16.380615234375,16.3817920684814,16.3829555511475,16.3841228485107,16.3852958679199,16.3864688873291,16.3876342773438,16.3888130187988,16.3899726867676,16.3911476135254,16.3923244476318,16.3934917449951,16.3946647644043,16.3958377838135,16.3970050811768,16.3981819152832,16.399356842041,16.4005260467529,16.4016990661621,16.402868270874,16.4040451049805,16.4052181243896,16.4063949584961,16.4075679779053,16.4087371826172,16.4099159240723,16.4110832214355,16.4122619628906,16.4134387969971,16.4146156311035,16.4157886505127,16.4169616699219,16.4181365966797,16.4193134307861,16.4204940795898,16.4216651916504,16.4228401184082,16.4240169525146,16.4251861572266,16.4263668060303,16.4275455474854,16.4287223815918,16.4298992156982,16.4310741424561,16.4322528839111,16.4334239959717,16.4346103668213,16.4357833862305,16.4369583129883,16.4381351470947,16.4393177032471,16.4404983520508,16.4416809082031,16.4428577423096,16.4440269470215,16.4452114105225,16.4463901519775,16.447566986084,16.448751449585,16.4499282836914,16.4511051177979,16.4522857666016,16.4534645080566,16.4546489715576,16.4558277130127,16.4570083618164,16.4581909179688,16.4593677520752,16.4605484008789,16.4617366790771,16.4629135131836,16.4640998840332,16.4652843475342,16.4664573669434,16.467643737793,0,0,0,0,0,0,0,0,0,0,0,0,0,0,0,0,0,0,0,0,0,0,0,0,0,0,0,0,0,0,0,0,0,0,0,0,0,0,0,0,0,0,0,0,0,0,0,0,0,0,0,0,0,0,0,0,0,0,0,0,0,0,0,0,0,0,0,0,0,0,0,0,0,0,0,0,0,0,0,0,0,0,0
15.8206176757812,15.8217096328735,15.8228044509888,15.8238868713379,15.8249835968018,15.8260803222656,15.8271675109863,15.8282585144043,15.8293533325195,15.8304405212402,15.8315362930298,15.8326320648193,15.8337249755859,15.8348150253296,15.8359088897705,15.8369960784912,15.8380918502808,15.8391923904419,15.8402910232544,15.841381072998,15.8424739837646,15.8435659408569,15.8446550369263,15.8457622528076,15.8468532562256,15.8479423522949,15.8490409851074,15.8501386642456,15.8512268066406,15.8523330688477,15.8534240722656,15.8545179367065,15.8556108474731,15.8567132949829,15.8578014373779,15.858907699585,15.8600034713745,15.8611040115356,15.8621959686279,15.8632907867432,15.8643970489502,15.8654832839966,15.8665857315063,15.8676853179932,15.8687772750854,15.8698711395264,15.8709783554077,15.8720693588257,15.8731708526611,15.8742713928223,15.8753671646118,15.8764619827271,15.8775682449341,15.8786706924438,15.8797655105591,15.8808650970459,15.88196849823,15.8830604553223,15.8841676712036,15.8852701187134,15.8863639831543,15.8874635696411,15.8885641098022,15.8896589279175,15.8907699584961,15.8918724060059,15.8929662704468,15.8940706253052,15.895170211792,15.8962707519531,15.8973770141602,15.8984785079956,15.899582862854,15.9006757736206,15.9017820358276,15.9028873443604,15.9039926528931,15.9050941467285,15.9061994552612,15.9072971343994,15.9083967208862,15.9095020294189,15.9106063842773,15.9117126464844,15.9128198623657,15.9139223098755,15.9150218963623,15.9161252975464,15.9172372817993,15.9183368682861,15.9194431304932,15.9205522537231,15.9216451644897,15.9227561950684,15.9238729476929,15.9249677658081,15.9260778427124,15.9271802902222,15.9282855987549,15.9293899536133,15.9305067062378,15.9316072463989,15.9327116012573,15.933819770813,15.9349298477173,15.9360284805298,15.9371433258057,15.938250541687,15.9393548965454,15.9404630661011,15.9415731430054,15.9426727294922,15.943793296814,15.944899559021,15.9460048675537,15.9471130371094,15.9482221603394,15.9493265151978,15.9504432678223,15.9515533447266,15.9526634216309,15.9537668228149,15.9548768997192,15.9559860229492,15.9571018218994,15.9582138061523,15.9593238830566,15.9604263305664,15.9615364074707,15.9626522064209,15.9637622833252,15.9648742675781,15.9659881591797,15.9670906066895,15.968207359314,15.9693164825439,15.9704389572144,15.9715442657471,15.9726543426514,15.9737672805786,15.9748792648315,15.9759874343872,15.9771156311035,15.9782199859619,15.9793310165405,15.9804449081421,15.9815540313721,15.9826717376709,15.9837913513184,15.9848985671997,15.9860143661499,15.9871273040771,15.9882440567017,15.9893484115601,15.9904756546021,15.9915933609009,15.992696762085,15.9938173294067,15.9949264526367,15.9960441589355,15.997163772583,15.9982833862305,15.9993934631348,16.0005130767822,16.0016307830811,16.0027408599854,16.0038604736328,16.0049800872803,16.0060997009277,16.0072135925293,16.0083332061768,16.0094509124756,16.0105609893799,16.0116863250732,16.0128040313721,16.013916015625,16.0150375366211,16.0161533355713,16.0172691345215,16.0183925628662,16.0195121765137,16.0206298828125,16.0217475891113,16.0228710174561,16.0239810943604,16.0251064300537,16.0262222290039,16.0273399353027,16.0284652709961,16.0295848846436,16.0307025909424,16.0318279266357,16.0329437255859,16.034065246582,16.0351905822754,16.0363121032715,16.037425994873,16.0385570526123,16.0396709442139,16.0407905578613,16.0419178009033,16.0430393218994,16.0441589355469,16.0452861785889,16.0464019775391,16.0475292205811,16.0486526489258,16.0497722625732,16.050895690918,16.0520172119141,16.0531463623047,16.0542659759521,16.0553932189941,16.0565166473389,16.057638168335,16.0587692260742,16.0598907470703,16.061014175415,16.0621433258057,16.0632705688477,16.0643863677979,16.0655212402344,16.0666389465332,16.0677604675293,16.0688953399658,16.0700187683105,16.0711441040039,16.0722732543945,16.0733947753906,16.0745182037354,16.0756454467773,16.076774597168,16.0779037475586,16.079029083252,16.0801620483398,16.0812835693359,16.0824108123779,16.0835399627686,16.0846710205078,16.0857963562012,16.0869216918945,16.0880508422852,16.0891819000244,16.0903053283691,16.0914363861084,16.0925674438477,16.093692779541,16.094820022583,16.0959510803223,16.0970859527588,16.098217010498,16.0993423461914,16.1004734039307,16.1016082763672,16.1027317047119,16.1038627624512,16.1049976348877,16.1061267852783,16.1072540283203,16.1083889007568,16.1095199584961,16.110652923584,16.1117858886719,16.1129150390625,16.1140460968018,16.115177154541,16.1163158416748,16.1174430847168,16.1185760498047,16.1197109222412,16.1208419799805,16.1219711303711,16.1231079101562,16.1242370605469,16.1253776550293,16.1265087127686,16.1276454925537,16.1287803649902,16.1299095153809,16.131046295166,16.1321830749512,16.1333198547363,16.1344451904297,16.1355876922607,16.1367206573486,16.1378574371338,16.1389961242676,16.1401271820068,16.1412620544434,16.1423969268799,16.1435375213623,16.1446704864502,16.1458053588867,16.1469459533691,16.1480827331543,16.1492156982422,16.1503524780273,16.151496887207,16.1526298522949,16.1537742614746,16.1549053192139,16.1560478210449,16.1571788787842,16.158317565918,16.159460067749,16.1605987548828,16.1617374420166,16.1628761291504,16.1640110015869,16.1651515960693,16.1662940979004,16.1674289703369,16.1685771942139,16.169713973999,16.1708507537842,16.1719951629639,16.1731338500977,16.1742782592773,16.1754131317139,16.1765537261963,16.1776962280273,16.1788349151611,16.1799793243408,16.1811199188232,16.1822605133057,16.1834087371826,16.1845455169678,16.1856880187988,16.1868343353271,16.1879749298096,16.189115524292,16.190258026123,16.1914005279541,16.1925430297852,16.1936817169189,16.1948280334473,16.1959667205811,16.1971130371094,16.1982574462891,16.1993980407715,16.2005519866943,16.2016925811768,16.2028331756592,16.2039833068848,16.2051277160645,16.2062702178955,16.2074184417725,16.2085628509521,16.2096996307373,16.2108478546143,16.2119979858398,16.2131443023682,16.2142925262451,16.2154388427734,16.2165832519531,16.2177314758301,16.2188739776611,16.2200164794922,16.221170425415,16.2223148345947,16.2234649658203,16.2246131896973,0,0,0,0,0,0,0,0,0,0,0,0,0,0,0,0,0,0,0,0,0,0,0,0,0,0,0,0,0,0,0,0,0,0,0,0,0,0,0,0,0,0,0,0,0,0,0,0,0,0,0,0,0,0,0,0,0,0,0,0,0,0,0,0,0,0,0,0,0,0,0,0,0,0,0,0,0,0,0
15.5919342041016,15.5929975509644,15.5940580368042,15.5951156616211,15.5961799621582,15.5972452163696,15.5983028411865,15.5993595123291,15.6004238128662,15.6014804840088,15.6025485992432,15.6036071777344,15.6046695709229,15.6057243347168,15.6067876815796,15.607855796814,15.6089162826538,15.6099805831909,15.6110410690308,15.6121053695679,15.6131620407104,15.6142225265503,15.6153001785278,15.6163558959961,15.6174221038818,15.6184797286987,15.6195411682129,15.62060546875,15.6216773986816,15.6227369308472,15.6238021850586,15.6248645782471,15.6259241104126,15.6269884109497,15.6280632019043,15.6291284561157,15.6301870346069,15.6312522888184,15.6323175430298,15.6333808898926,15.6344547271729,15.63551902771,15.6365823745728,15.6376466751099,15.6387166976929,15.6397790908813,15.6408452987671,15.641921043396,15.6429758071899,15.6440448760986,15.6451148986816,15.6461753845215,15.6472473144531,15.6483154296875,15.6493864059448,15.6504497528076,15.6515169143677,15.6525897979736,15.6536598205566,15.6547269821167,15.655797958374,15.6568584442139,15.6579256057739,15.6590023040771,15.6600656509399,15.6611385345459,15.6622085571289,15.6632747650146,15.6643390655518,15.6654224395752,15.6664886474609,15.6675539016724,15.6686277389526,15.6696949005127,15.6707649230957,15.6718406677246,15.6729135513306,15.673975944519,15.6750497817993,15.6761198043823,15.6771907806396,15.6782712936401,15.6793422698975,15.6804103851318,15.6814832687378,15.6825532913208,15.6836271286011,15.6847019195557,15.6857709884644,15.6868457794189,15.6879167556763,15.6889925003052,15.6900653839111,15.6911392211914,15.6922130584717,15.693286895752,15.6943559646606,15.6954317092896,15.6965026855469,15.6975803375244,15.6986570358276,15.6997337341309,15.7008085250854,15.7018766403198,15.702953338623,15.7040376663208,15.7051048278809,15.7061815261841,15.70725440979,15.7083292007446,15.7094058990479,15.7104873657227,15.7115602493286,15.7126359939575,15.713716506958,15.7147874832153,15.7158641815186,15.7169513702393,15.7180233001709,15.7190990447998,15.7201766967773,15.7212543487549,15.7223291397095,15.7234086990356,15.7244930267334,15.7255611419678,15.7266445159912,15.7277202606201,15.7287950515747,15.7298812866211,15.73095703125,15.7320318222046,15.7331142425537,15.7341947555542,15.7352685928345,15.7363538742065,15.7374353408813,15.7385149002075,15.7395906448364,15.7406711578369,15.7417516708374,15.7428340911865,15.7439155578613,15.7449998855591,15.746075630188,15.7471551895142,15.7482385635376,15.7493171691895,15.7504034042358,15.7514801025391,15.7525548934937,15.75364112854,15.7547245025635,15.7558126449585,15.7568922042847,15.7579755783081,15.7590608596802,15.7601346969604,15.7612161636353,15.7623109817505,15.7633895874023,15.7644720077515,15.7655515670776,15.7666301727295,15.7677192687988,15.7688112258911,15.769889831543,15.770977973938,15.7720594406128,15.7731466293335,15.7742252349854,15.7753171920776,15.7764053344727,15.7774829864502,15.7785663604736,15.779655456543,15.7807340621948,15.7818298339844,15.782919883728,15.7839965820312,15.785083770752,15.7861728668213,15.787260055542,15.788348197937,15.7894334793091,15.7905168533325,15.7916021347046,15.7926902770996,15.7937870025635,15.7948684692383,15.795955657959,15.7970447540283,15.7981290817261,15.7992172241211,15.800311088562,15.8014001846313,15.8024854660034,15.8035726547241,15.8046617507935,15.8057489395142,15.806848526001,15.807933807373,15.8090219497681,15.8101100921631,15.8112001419067,15.8122863769531,15.8133840560913,15.814474105835,15.8155641555786,15.8166542053223,15.817741394043,15.8188343048096,15.8199291229248,15.8210182189941,15.8221101760864,15.8231973648071,15.8242931365967,15.8253784179688,15.8264799118042,15.8275709152222,15.8286628723145,15.8297510147095,15.8308410644531,15.8319330215454,15.8330345153809,15.8341245651245,15.8352155685425,15.8363094329834,15.8374052047729,15.8384923934937,15.8395967483521,15.8406867980957,15.8417797088623,15.8428716659546,15.8439683914185,15.8450613021851,15.8461580276489,15.8472518920898,15.8483486175537,15.849440574646,15.8505363464355,15.8516292572021,15.8527326583862,15.8538284301758,15.8549184799194,15.8560123443604,15.8571100234985,15.8582057952881,15.8593082427979,15.8604068756104,15.861496925354,15.8625926971436,15.8636884689331,15.8647861480713,15.865891456604,15.8669862747192,15.8680830001831,15.869179725647,15.8702745437622,15.8713731765747,15.8724756240845,15.8735752105713,15.8746709823608,15.8757667541504,15.8768692016602,15.8779678344727,15.8790702819824,15.8801717758179,15.8812685012817,15.8823661804199,15.8834676742554,15.8845634460449,15.8856687545776,15.8867664337158,15.8878698348999,15.8889684677124,15.8900651931763,15.8911619186401,15.8922758102417,15.8933744430542,15.894474029541,15.8955717086792,15.8966732025146,15.8977746963501,15.8988800048828,15.8999853134155,15.901086807251,15.9021854400635,15.9032878875732,15.9043846130371,15.9054975509644,15.9066009521484,15.9076995849609,15.9088010787964,15.9099054336548,15.9110078811646,15.9121160507202,15.9132194519043,15.9143228530884,15.9154281616211,15.9165296554565,15.9176340103149,15.9187450408936,15.9198455810547,15.9209480285645,15.9220571517944,15.9231605529785,15.9242630004883,15.9253768920898,15.9264812469482,15.927586555481,15.928689956665,15.9297933578491,15.9309062957764,15.9320125579834,15.9331150054932,15.9342269897461,15.9353275299072,15.9364356994629,15.9375505447388,15.9386577606201,15.9397649765015,15.9408693313599,15.9419755935669,15.9430828094482,15.9441967010498,15.9453058242798,15.9464111328125,15.9475154876709,15.9486293792725,15.9497337341309,15.9508476257324,15.951961517334,15.9530658721924,15.9541759490967,15.9552841186523,15.9563903808594,15.9575090408325,15.9586191177368,15.9597272872925,15.9608354568481,15.9619426727295,15.9630575180054,15.9641752243042,15.9652814865112,15.9663934707642,15.9675025939941,15.9686126708984,15.9697237014771,15.9708423614502,15.9719562530518,15.9730653762817,15.9741735458374,15.975287437439,15.9763994216919,15.9775142669678,15.9786281585693,15.9797401428223,15.9808530807495,15.9819641113281,15.9830770492554,15.9841976165771,15.9853096008301,15.9864225387573,15.9875345230103,15.9886455535889,15.9897651672363,0,0,0,0,0,0,0,0,0,0,0,0,0,0,0,0,0,0,0,0,0,0,0,0,0,0,0,0,0,0,0,0,0,0,0,0,0,0,0,0,0,0,0,0,0,0,0,0,0,0,0,0,0,0,0,0,0,0,0,0,0,0,0,0,0,0,0,0,0,0,0,0,0,0
15.3697729110718,15.3708066940308,15.3718328475952,15.3728704452515,15.3739023208618,15.374927520752,15.3759565353394,15.3769884109497,15.3780136108398,15.3790531158447,15.3800840377808,15.3811140060425,15.3821458816528,15.3831758499146,15.384204864502,15.3852443695068,15.3862724304199,15.3872995376587,15.3883361816406,15.389365196228,15.3903970718384,15.3914337158203,15.3924674987793,15.393497467041,15.3945264816284,15.395565032959,15.396595954895,15.397629737854,15.3986673355103,15.3997030258179,15.4007301330566,15.4017667770386,15.4028005599976,15.4038333892822,15.4048757553101,15.4059085845947,15.4069395065308,15.4079742431641,15.4090070724487,15.4100503921509,15.4110841751099,15.4121141433716,15.4131555557251,15.4141836166382,15.415225982666,15.4162673950195,15.4172992706299,15.4183340072632,15.4193735122681,15.4203987121582,15.4214391708374,15.4224853515625,15.4235210418701,15.4245548248291,15.4255924224854,15.4266328811646,15.4276599884033,15.4287099838257,15.4297456741333,15.430775642395,15.4318180084229,15.4328584671021,15.4338903427124,15.4349374771118,15.4359760284424,15.4370107650757,15.4380464553833,15.4390907287598,15.4401388168335,15.4411716461182,15.4422092437744,15.443247795105,15.444281578064,15.4453287124634,15.4463768005371,15.4474077224731,15.448450088501,15.4494943618774,15.4505310058594,15.4515705108643,15.4526166915894,15.453652381897,15.4546976089478,15.4557409286499,15.4567756652832,15.457820892334,15.458869934082,15.4599113464355,15.4609460830688,15.461989402771,15.4630346298218,15.4640665054321,15.4651193618774,15.4661645889282,15.4672002792358,15.4682464599609,15.4692907333374,15.470326423645,15.471378326416,15.4724216461182,15.4734621047974,15.4745063781738,15.4755477905273,15.4765939712524,15.4776458740234,15.478687286377,15.4797306060791,15.4807748794556,15.4818143844604,15.4828653335571,15.4839096069336,15.4849548339844,15.4860038757324,15.48703956604,15.4880838394165,15.4891328811646,15.4901809692383,15.491231918335,15.4922790527344,15.4933242797852,15.4943628311157,15.4954099655151,15.4964685440063,15.4975118637085,15.4985570907593,15.499608039856,15.5006494522095,15.5016956329346,15.5027523040771,15.503794670105,15.5048389434814,15.5058879852295,15.5069351196289,15.5079851150513,15.5090408325195,15.5100870132446,15.5111303329468,15.5121765136719,15.5132284164429,15.5142726898193,15.5153331756592,15.5163831710815,15.5174312591553,15.5184764862061,15.5195331573486,15.5205755233765,15.5216331481934,15.52268409729,15.5237302780151,15.5247793197632,15.5258340835571,15.5268812179565,15.5279378890991,15.5289859771729,15.5300436019897,15.5310859680176,15.5321397781372,15.5331916809082,15.5342473983765,15.5353012084961,15.5363502502441,15.5373983383179,15.5384492874146,15.5395059585571,15.5405607223511,15.5416116714478,15.5426664352417,15.5437126159668,15.5447702407837,15.5458250045776,15.5468864440918,15.5479335784912,15.5489873886108,15.5500411987305,15.5510950088501,15.5521478652954,15.5532093048096,15.5542612075806,15.5553159713745,15.5563716888428,15.5574207305908,15.5584745407104,15.5595388412476,15.5605897903442,15.5616464614868,15.5627002716064,15.5637559890747,15.564811706543,15.5658769607544,15.5669317245483,15.5679836273193,15.5690412521362,15.5700988769531,15.5711517333984,15.5722169876099,15.5732736587524,15.5743284225464,15.575382232666,15.5764427185059,15.5775032043457,15.5785608291626,15.5796194076538,15.5806732177734,15.581729888916,15.5827922821045,15.5838594436646,15.5849132537842,15.5859718322754,15.5870294570923,15.5880861282349,15.5891437530518,15.5902128219604,15.591269493103,15.5923271179199,15.5933885574341,15.5944452285767,15.5955038070679,15.5965747833252,15.5976295471191,15.5986881256104,15.5997514724731,15.60080909729,15.6018667221069,15.6029405593872,15.6039972305298,15.6050567626953,15.6061162948608,15.6071786880493,15.6082420349121,15.6093072891235,15.6103706359863,15.6114330291748,15.6124935150146,15.6135549545288,15.6146144866943,15.6156826019287,15.6167497634888,15.6178064346313,15.6188678741455,15.6199331283569,15.6209926605225,15.6220684051514,15.6231288909912,15.624192237854,15.6252527236938,15.626317024231,15.6273803710938,15.6284523010254,15.6295146942139,15.630578994751,15.6316432952881,15.6327066421509,15.6337757110596,15.6348438262939,15.6359081268311,15.6369724273682,15.6380386352539,15.639105796814,15.6401662826538,15.6412363052368,15.6423082351685,15.6433696746826,15.6444330215454,15.6455020904541,15.6465682983398,15.6476421356201,15.6487102508545,15.649772644043,15.650839805603,15.6519069671631,15.6529750823975,15.6540517807007,15.6551189422607,15.6561832427979,15.6572494506836,15.6583204269409,15.6593856811523,15.6604642868042,15.6615304946899,15.66259765625,15.6636667251587,15.6647338867188,15.6658039093018,15.6668815612793,15.667950630188,15.6690196990967,15.6700849533081,15.6711568832397,15.6722288131714,15.6733026504517,15.6743755340576,15.675443649292,15.6765146255493,15.6775817871094,15.6786546707153,15.6797332763672,15.6808052062988,15.6818733215332,15.6829462051392,15.6840171813965,15.6850881576538,15.6861686706543,15.6872396469116,15.6883087158203,15.689380645752,15.6904516220093,15.6915292739868,15.69260597229,15.6936826705933,15.6947507858276,15.6958236694336,15.6968994140625,15.6979694366455,15.6990528106689,15.7001247406006,15.7011995315552,15.7022743225098,15.7033491134644,15.7044219970703,15.7055034637451,15.7065744400024,15.7076501846313,15.7087259292603,15.7097978591919,15.7108812332153,15.7119617462158,15.7130317687988,15.7141056060791,15.7151803970337,15.7162590026855,15.7173442840576,15.7184171676636,15.7194900512695,15.72057056427,15.7216453552246,15.7227258682251,15.7238082885742,15.7248840332031,15.7259607315063,15.7270345687866,15.7281131744385,15.7291917800903,15.7302742004395,15.7313547134399,15.7324295043945,15.7335052490234,15.7345905303955,15.7356653213501,15.7367506027222,15.737832069397,15.7389087677002,15.7399873733521,15.7410688400269,15.7421455383301,15.743236541748,15.744309425354,15.7453851699829,15.746467590332,15.7475519180298,15.7486324310303,15.749719619751,15.7507953643799,15.751877784729,15.7529563903809,15.7540397644043,15.7551231384277,15.7562065124512,15.7572917938232,15.7583703994751,15.7594518661499,15.760534286499,0,0,0,0,0,0,0,0,0,0,0,0,0,0,0,0,0,0,0,0,0,0,0,0,0,0,0,0,0,0,0,0,0,0,0,0,0,0,0,0,0,0,0,0,0,0,0,0,0,0,0,0,0,0,0,0,0,0,0,0,0,0,0,0,0,0,0,0,0,0
