2.36102414131165,2.36101341247559,2.36100482940674,2.36099338531494,2.3609836101532,2.36097311973572,2.36096358299255,2.36095380783081,2.36094331741333,2.36093187332153,2.36092233657837,2.36091184616089,2.36090230941772,2.36089181900024,2.36088228225708,2.36087083816528,2.3608615398407,2.36085104942322,2.36083960533142,2.36083030700684,2.36082053184509,2.36080932617188,2.36080074310303,2.36078858375549,2.36077904701233,2.36076974868774,2.36075830459595,2.36074900627136,2.36073875427246,2.36072731018066,2.36071801185608,2.36070775985718,2.36069750785828,2.36068797111511,2.36067771911621,2.36066651344299,2.36065626144409,2.36064600944519,2.36063671112061,2.3606264591217,2.3606162071228,2.36060428619385,2.36059498786926,2.36058568954468,2.36057448387146,2.36056518554688,2.36055421829224,2.36054396629333,2.36053562164307,2.36052370071411,2.36051368713379,2.3605043888092,2.36049342155457,2.36048221588135,2.36047315597534,2.3604621887207,2.36045289039612,2.36044192314148,2.36043286323547,2.36042189598083,2.36041283607483,2.36040282249451,2.36039090156555,2.36038160324097,2.36037087440491,2.36036086082458,2.36034989356995,2.36034083366394,2.3603298664093,2.36031913757324,2.36031007766724,2.36030006408691,2.36028838157654,2.36028027534485,2.36026930809021,2.36025857925415,2.36024856567383,2.36023783683777,2.36022710800171,2.36021900177002,2.36020731925964,2.3601975440979,2.36018681526184,2.36017775535583,2.36016702651978,2.36015725135803,2.36014652252197,2.36013579368591,2.36012601852417,2.36011624336243,2.36010456085205,2.36009478569031,2.36008429527283,2.36007523536682,2.36006569862366,2.3600549697876,2.36004424095154,2.36003470420837,2.36002397537231,2.36001420021057,2.36000180244446,2.35999417304993,2.35998344421387,2.35997295379639,2.35996317863464,2.35995268821716,2.35994124412537,2.35993146896362,2.35992121696472,2.35991144180298,2.3599009513855,2.35989141464233,2.35988092422485,2.35987043380737,2.35986089706421,2.35985136032104,2.35983896255493,2.3598313331604,2.35981917381287,2.35980939865112,2.35980010032654,2.35978960990906,2.35977816581726,2.35976791381836,2.3597583770752,2.35974907875061,2.35973858833313,2.35972833633423,2.35971689224243,2.35970759391785,2.35969710350037,2.35968708992004,2.35967659950256,2.35966730117798,2.35965609550476,2.3596465587616,2.35963654518127,2.35962605476379,2.35961580276489,2.35960483551025,2.35959529876709,2.35958528518677,2.35957407951355,2.35956573486328,2.35955357551575,2.35954427719116,2.35953402519226,2.35952401161194,2.35951375961304,2.3595027923584,2.35949349403381,2.35948252677917,2.35947227478027,2.35946393013,2.35945200920105,2.35944199562073,2.35943269729614,2.35942196846008,2.3594114780426,2.35940074920654,2.35939168930054,2.35938143730164,2.35936975479126,2.35936045646667,2.35934972763062,2.35934042930603,2.35932946205139,2.35932040214539,2.35930943489075,2.35929870605469,2.35928893089294,2.35927963256836,2.35926795005798,2.35925793647766,2.35924792289734,2.3592381477356,2.35922718048096,2.35921835899353,2.35920739173889,2.35919761657715,2.35918688774109,2.35917782783508,2.35916614532471,2.35915637016296,2.35914635658264,2.3591365814209,2.35912489891052,2.35911512374878,2.35910534858704,2.35909557342529,2.35908389091492,2.35907411575317,2.35906362533569,2.35905456542969,2.35904383659363,2.35903429985046,2.3590235710144,2.35901379585266,2.35900330543518,2.35899353027344,2.35898208618164,2.3589723110199,2.35896348953247,2.35895299911499,2.35894131660461,2.35893082618713,2.35892128944397,2.35891246795654,2.35890007019043,2.3588924407959,2.35888004302979,2.35887050628662,2.35885977745056,2.35885047912598,2.35883975028992,2.35882925987244,2.35881996154785,2.35881018638611,2.35879874229431,2.35878920555115,2.35877990722656,2.35876941680908,2.35875797271729,2.35874772071838,2.35873818397522,2.35872864723206,2.35871648788452,2.35870695114136,2.35869669914246,2.35868716239929,2.35867667198181,2.35866570472717,2.35865616798401,2.35864591598511,2.35863566398621,2.35862708091736,2.3586151599884,2.35860562324524,2.35859537124634,2.35858607292175,2.35857486724854,2.35856461524963,2.35855531692505,2.35854506492615,2.35853385925293,2.35852384567261,2.35851359367371,2.35850429534912,2.35849332809448,2.35848307609558,2.358473777771,2.35846257209778,2.35845160484314,2.35844230651855,2.35843229293823,2.35842204093933,2.35841107368469,2.35840106010437,2.35839176177979,2.35838103294373,2.35837078094482,2.3583607673645,2.35835075378418,2.35834074020386,2.35832953453064,2.3583197593689,2.35831046104431,2.35829949378967,2.35828852653503,2.35827875137329,2.35826873779297,2.35825967788696,2.35824799537659,2.35823798179626,2.35822796821594,2.35821795463562,2.35820722579956,2.35819721221924,2.3581874370575,2.35817837715149,2.35816669464111,2.35815668106079,2.35814595222473,2.35813689231873,2.35812616348267,2.35811543464661,2.35810661315918,2.35809588432312,2.35808491706848,2.35807514190674,2.35806441307068,2.35805559158325,2.35804390907288,2.35803437232971,2.35802435874939,2.35801386833191,2.35800313949585,2.35799336433411,2.35798358917236,2.3579740524292,2.35796236991882,2.35795259475708,2.35794305801392,2.35793328285217,2.35792183876038,2.35791206359863,2.35790252685547,2.35789275169373,2.35788130760193,2.35787153244019,2.35786128044128,2.35785174369812,2.35784101486206,2.35783052444458
2.34549164772034,2.34548139572144,2.34547138214111,2.3454601764679,2.34545111656189,2.34544014930725,2.34543108940125,2.34542107582092,2.34540987014771,2.34539985656738,2.34539079666138,2.34538078308105,2.34537076950073,2.34535884857178,2.34535074234009,2.34533977508545,2.34533071517944,2.34532070159912,2.34530997276306,2.34529972076416,2.34528994560242,2.34527993202209,2.34526991844177,2.3452582359314,2.34525012969971,2.34523940086365,2.34522843360901,2.34521865844727,2.34520888328552,2.3451988697052,2.34518980979919,2.34517741203308,2.34516930580139,2.34515762329102,2.34514880180359,2.34513878822327,2.34512805938721,2.34511828422546,2.34510850906372,2.34509801864624,2.34508800506592,2.34507727622986,2.34506845474243,2.34505701065063,2.34504723548889,2.34503746032715,2.34502768516541,2.34501719474792,2.3450083732605,2.34499573707581,2.34498715400696,2.3449764251709,2.34496784210205,2.34495806694031,2.34494662284851,2.34493684768677,2.34492659568787,2.34491682052612,2.34490704536438,2.34489583969116,2.34488701820374,2.34487581253052,2.34486603736877,2.34485554695129,2.34484601020813,2.34483647346497,2.34482598304749,2.34481453895569,2.34480595588684,2.34479546546936,2.34478497505188,2.34477567672729,2.34476518630981,2.34475564956665,2.34474539756775,2.34473395347595,2.3447253704071,2.34471416473389,2.34470582008362,2.34469437599182,2.34468507766724,2.34467458724976,2.34466528892517,2.34465503692627,2.34464383125305,2.34463429450989,2.3446249961853,2.34461379051208,2.3446044921875,2.3445942401886,2.3445839881897,2.34457468986511,2.34456348419189,2.34455323219299,2.34454488754272,2.34453392028809,2.34452342987061,2.34451246261597,2.3445041179657,2.3444938659668,2.34448289871216,2.34447264671326,2.34446358680725,2.34445333480835,2.34444332122803,2.34443211555481,2.3444230556488,2.3444128036499,2.34440183639526,2.34439253807068,2.34438276290894,2.34437251091003,2.34436249732971,2.34435153007507,2.34434247016907,2.34433150291443,2.34432148933411,2.34431147575378,2.34430241584778,2.34429240226746,2.34428071975708,2.34427070617676,2.34426259994507,2.34425163269043,2.34424161911011,2.34422993659973,2.34422183036804,2.34421181678772,2.34420108795166,2.3441903591156,2.34418225288391,2.34417057037354,2.34416055679321,2.34414982795715,2.34414100646973,2.3441309928894,2.34412026405334,2.34411025047302,2.34410071372986,2.34409093856812,2.34408092498779,2.344069480896,2.34406065940857,2.34404993057251,2.34403991699219,2.34403014183044,2.34402060508728,2.34400987625122,2.34399914741516,2.343989610672,2.34398078918457,2.34396815299988,2.34395956993103,2.34394979476929,2.34394025802612,2.34392857551575,2.34391903877258,2.34390926361084,2.34389877319336,2.34388828277588,2.34387946128845,2.34386801719666,2.34385848045349,2.34384799003601,2.34383845329285,2.3438286781311,2.34381723403931,2.34380769729614,2.34379911422729,2.34378790855408,2.34377813339233,2.34376788139343,2.34375834465027,2.3437488079071,2.34373736381531,2.34372782707214,2.34371852874756,2.34370803833008,2.34369778633118,2.3436872959137,2.34367799758911,2.34366655349731,2.34365725517273,2.34364771842957,2.34363651275635,2.34362602233887,2.3436176776886,2.34360647201538,2.3435971736908,2.34358596801758,2.34357738494873,2.34356713294983,2.34355592727661,2.34354662895203,2.34353733062744,2.3435263633728,2.34351682662964,2.343505859375,2.34349727630615,2.3434853553772,2.34347605705261,2.34346580505371,2.34345483779907,2.34344553947449,2.34343647956848,2.34342551231384,2.34341526031494,2.34340500831604,2.34339594841003,2.34338593482971,2.34337472915649,2.34336566925049,2.3433563709259,2.34334444999695,2.34333539009094,2.3433244228363,2.34331440925598,2.34330439567566,2.34329509735107,2.34328508377075,2.34327411651611,2.34326434135437,2.34325528144836,2.34324431419373,2.3432343006134,2.34322333335876,2.34321522712708,2.3432035446167,2.34319448471069,2.34318447113037,2.34317278862,2.34316301345825,2.34315490722656,2.34314393997192,2.34313416481018,2.34312415122986,2.34311437606812,2.34310460090637,2.343092918396,2.34308505058289,2.34307312965393,2.34306335449219,2.34305357933044,2.34304285049438,2.34303307533264,2.34302425384521,2.34301352500916,2.34300374984741,2.34299206733704,2.3429844379425,2.34297370910645,2.34296298027039,2.34295320510864,2.3429434299469,2.3429319858551,2.34292316436768,2.34291243553162,2.34290289878845,2.34289312362671,2.34288358688354,2.34287214279175,2.34286236763,2.34285283088684,2.34284234046936,2.3428316116333,2.34282302856445,2.34281158447266,2.34280204772949,2.34279251098633,2.34278297424316,2.34277153015137,2.3427619934082,2.34275150299072,2.34274196624756,2.34273052215576,2.34272193908691,2.34271240234375,2.34270119667053,2.34269165992737,2.34268236160278,2.34267091751099,2.34266233444214,2.34265089035034,2.34264159202576,2.34263014793396,2.34262180328369,2.34261131286621,2.34260106086731,2.34259080886841,2.34258055686951,2.34257006645203,2.34256172180176,2.34255051612854,2.34254121780396,2.34253096580505,2.34252166748047,2.34251022338867,2.34250020980835,2.34249091148376,2.34248042106628,2.34246945381165,2.34246110916138,2.34244894981384,2.34244084358215,2.34243035316467,2.34241938591003,2.34240937232971,2.34240007400513,2.3423900604248,2.3423798084259,2.342369556427,2.34235954284668,2.34234833717346,2.34234023094177
2.330162525177,2.33015179634094,2.33014106750488,2.33013033866882,2.33012247085571,2.33011102676392,2.33010196685791,2.33009052276611,2.33008170127869,2.33007192611694,2.33006167411804,2.33005166053772,2.33004117012024,2.33003163337708,2.33002281188965,2.33001136779785,2.33000183105469,2.32999205589294,2.32998251914978,2.32997179031372,2.32996153831482,2.32995271682739,2.32994318008423,2.32993173599243,2.32992315292358,2.3299126625061,2.32990312576294,2.32989263534546,2.32988214492798,2.32987356185913,2.32986330986023,2.32985281944275,2.32984328269958,2.32983207702637,2.32982444763184,2.3298122882843,2.32980370521545,2.32979321479797,2.32978296279907,2.32977342605591,2.32976412773132,2.32975268363953,2.32974338531494,2.32973313331604,2.32972383499146,2.32971334457397,2.32970309257507,2.32969379425049,2.32968354225159,2.32967329025269,2.3296639919281,2.32965278625488,2.32964515686035,2.3296332359314,2.32962393760681,2.32961368560791,2.32960343360901,2.32959413528442,2.3295841217041,2.3295738697052,2.32956457138062,2.32955455780029,2.32954525947571,2.32953429222107,2.32952427864075,2.32951498031616,2.32950496673584,2.32949471473694,2.32948541641235,2.3294734954834,2.32946443557739,2.32945442199707,2.32944512367249,2.32943511009216,2.32942414283752,2.32941508293152,2.3294050693512,2.32939505577087,2.32938599586487,2.32937502861023,2.32936596870422,2.3293559551239,2.32934522628784,2.32933521270752,2.3293251991272,2.32931542396545,2.32930612564087,2.32929539680481,2.32928562164307,2.32927560806274,2.32926678657532,2.32925581932068,2.32924604415894,2.3292350769043,2.32922625541687,2.32921624183655,2.3292064666748,2.32919573783875,2.329185962677,2.32917618751526,2.32916712760925,2.32915639877319,2.32914590835571,2.32913708686829,2.32912802696228,2.32911658287048,2.32910752296448,2.32909607887268,2.32908630371094,2.32907748222351,2.32906699180603,2.32905721664429,2.32904648780823,2.3290376663208,2.32902812957764,2.32901668548584,2.32900786399841,2.32899618148804,2.32898664474487,2.32897782325745,2.32896757125854,2.32895684242249,2.32894825935364,2.32893776893616,2.32892894744873,2.32891750335693,2.32890796661377,2.32889747619629,2.32888793945312,2.32887840270996,2.32886791229248,2.328857421875,2.32884883880615,2.32883739471436,2.32882785797119,2.32881760597229,2.32880902290344,2.32879853248596,2.32878804206848,2.3287787437439,2.32876920700073,2.32875800132751,2.32874941825867,2.32873797416687,2.32872891426086,2.3287193775177,2.3287091255188,2.32869863510132,2.32868838310242,2.32867813110352,2.32867074012756,2.32865929603577,2.32864999771118,2.32863879203796,2.32862949371338,2.32862019538879,2.32860994338989,2.32859969139099,2.32858943939209,2.32857942581177,2.3285698890686,2.32855987548828,2.3285505771637,2.32854032516479,2.32853031158447,2.32852005958557,2.32850909233093,2.32850074768066,2.32849144935608,2.32847952842712,2.32847046852112,2.32846021652222,2.32845115661621,2.32844090461731,2.32843089103699,2.32841992378235,2.32840991020203,2.32840085029602,2.32839155197144,2.3283805847168,2.32837152481079,2.32835960388184,2.32835078239441,2.32834148406982,2.32833170890808,2.32832145690918,2.32831263542175,2.3283007144928,2.32829165458679,2.32828187942505,2.32827186584473,2.3282618522644,2.32825207710266,2.32824110984802,2.32823133468628,2.32822227478027,2.32821345329285,2.32820177078247,2.32819271087646,2.32818102836609,2.32817220687866,2.32816314697266,2.3281524181366,2.32814240455627,2.32813286781311,2.32812190055847,2.32811212539673,2.32810258865356,2.32809352874756,2.3280827999115,2.32807326316833,2.32806253433228,2.32805275917053,2.32804298400879,2.32803416252136,2.32802271842957,2.32801389694214,2.32800245285034,2.32799363136292,2.32798385620117,2.32797431945801,2.32796359062195,2.32795310020447,2.32794332504272,2.32793378829956,2.3279242515564,2.32791447639465,2.32790398597717,2.32789444923401,2.32788372039795,2.32787346839905,2.3278648853302,2.32785511016846,2.32784366607666,2.32783508300781,2.32782363891602,2.32781434059143,2.32780575752258,2.3277952671051,2.32778477668762,2.32777452468872,2.32776403427124,2.32775545120239,2.3277440071106,2.32773470878601,2.32772421836853,2.32771587371826,2.32770538330078,2.3276948928833,2.3276846408844,2.32767534255981,2.32766580581665,2.32765650749207,2.32764530181885,2.32763600349426,2.32762551307678,2.32761526107788,2.3276059627533,2.32759666442871,2.32758641242981,2.32757711410522,2.32756590843201,2.32755661010742,2.32754468917847,2.3275363445282,2.32752704620361,2.32751703262329,2.32750654220581,2.32749724388123,2.32748627662659,2.327476978302,2.32746696472168,2.32745766639709,2.32744765281677,2.32743740081787,2.32742738723755,2.32741737365723,2.32740616798401,2.327397108078,2.32738709449768,2.32737803459167,2.32736706733704,2.32735776901245,2.32734775543213,2.32733774185181,2.3273286819458,2.32731866836548,2.32730770111084,2.32729864120483,2.3272876739502,2.32727861404419,2.32726979255676,2.32725882530212,2.3272488117218,2.32723879814148,2.32722806930542,2.32721900939941,2.32720923423767,2.32720017433167,2.32718849182129,2.32717943191528,2.32716965675354,2.32715964317322,2.32714891433716,2.32713913917542,2.32713031768799,2.32712125778198,2.32710957527161,2.32710075378418,2.32708978652954,2.32708024978638,2.32706928253174,2.32705974578857,2.32705092430115
2.31503105163574,2.31502151489258,2.31501030921936,2.3150007724762,2.31499123573303,2.31498169898987,2.31497240066528,2.31496119499207,2.3149516582489,2.31494045257568,2.31493282318115,2.31492257118225,2.31491208076477,2.31490278244019,2.31489419937134,2.3148832321167,2.31487369537354,2.3148627281189,2.31485319137573,2.31484389305115,2.31483459472656,2.31482434272766,2.31481409072876,2.31480383872986,2.31479573249817,2.31478357315063,2.31477522850037,2.31476497650146,2.31475472450256,2.31474542617798,2.31473636627197,2.31472611427307,2.31471514701843,2.31470584869385,2.31469583511353,2.31468558311462,2.31467747688293,2.31466722488403,2.31465721130371,2.31464719772339,2.31463813781738,2.31462693214417,2.31461882591248,2.31460785865784,2.31459784507751,2.31458783149719,2.31457877159119,2.31456971168518,2.31455874443054,2.31454873085022,2.3145387172699,2.31452870368958,2.31452059745789,2.31450986862183,2.3144998550415,2.3144907951355,2.31448101997375,2.31447005271912,2.31446099281311,2.31445097923279,2.31444120407104,2.31443047523499,2.3144223690033,2.31441068649292,2.31440186500549,2.31439185142517,2.31438207626343,2.31437230110168,2.31436252593994,2.3143527507782,2.31434369087219,2.31433296203613,2.31432318687439,2.31431245803833,2.3143036365509,2.31429481506348,2.31428408622742,2.31427431106567,2.31426453590393,2.31425404548645,2.31424522399902,2.31423449516296,2.3142249584198,2.31421518325806,2.314204454422,2.31419491767883,2.31418609619141,2.31417632102966,2.3141667842865,2.31415629386902,2.31414651870728,2.31413507461548,2.31412744522095,2.3141176700592,2.31410717964172,2.31409764289856,2.3140881061554,2.3140766620636,2.31406879425049,2.31405758857727,2.31404805183411,2.31403851509094,2.31402802467346,2.3140184879303,2.31400895118713,2.31399941444397,2.31399011611938,2.3139796257019,2.31396913528442,2.31395888328552,2.31395030021667,2.31394076347351,2.31393051147461,2.31392097473145,2.31390976905823,2.31390023231506,2.31389188766479,2.31388163566589,2.31387209892273,2.31386184692383,2.31385159492493,2.31384229660034,2.31383299827576,2.31382274627686,2.31381320953369,2.31380295753479,2.31379270553589,2.31378269195557,2.31377410888672,2.31376314163208,2.3137538433075,2.31374454498291,2.31373333930969,2.31372427940369,2.31371593475342,2.31370377540588,2.31369566917419,2.31368613243103,2.31367516517639,2.31366610527039,2.31365489959717,2.31364560127258,2.31363749504089,2.31362652778625,2.31361651420593,2.31360626220703,2.31359624862671,2.3135871887207,2.3135781288147,2.31356692314148,2.31355690956116,2.31354808807373,2.31353783607483,2.31352806091309,2.3135187625885,2.31350708007812,2.31349897384644,2.31348967552185,2.31347894668579,2.31346893310547,2.31346011161804,2.3134491443634,2.31344103813171,2.31343030929565,2.31342029571533,2.31341123580933,2.31340050697327,2.31339049339294,2.31338167190552,2.31337094306946,2.31336188316345,2.31335115432739,2.31334233283997,2.31333160400391,2.31332182884216,2.31331181526184,2.31330299377441,2.31329226493835,2.31328344345093,2.31327271461487,2.31326365470886,2.31325316429138,2.31324434280396,2.3132336139679,2.31322383880615,2.3132152557373,2.31320452690125,2.3131947517395,2.31318521499634,2.31317448616028,2.31316566467285,2.31315422058105,2.31314563751221,2.3131365776062,2.3131263256073,2.31311655044556,2.31310606002808,2.31309628486633,2.31308770179749,2.31307625770569,2.31306767463684,2.3130578994751,2.3130476474762,2.31303787231445,2.31302738189697,2.31301784515381,2.31300926208496,2.31299686431885,2.31298923492432,2.31297874450684,2.31296920776367,2.31295990943909,2.31294846534729,2.31293892860413,2.31292963027954,2.31291913986206,2.31291079521179,2.31290030479431,2.31289076805115,2.31288123130798,2.31287002563477,2.31286072731018,2.3128514289856,2.31284093856812,2.31283259391785,2.31282210350037,2.31281208992004,2.31280159950256,2.31279230117798,2.31278300285339,2.31277370452881,2.31276249885559,2.31275320053101,2.31274390220642,2.31273365020752,2.31272339820862,2.31271409988403,2.31270313262939,2.31269478797913,2.31268453598022,2.31267547607422,2.31266522407532,2.31265592575073,2.31264472007751,2.31263566017151,2.31262540817261,2.31261730194092,2.3126060962677,2.31259703636169,2.31258702278137,2.31257677078247,2.31256675720215,2.31255769729614,2.3125467300415,2.31253743171692,2.31252646446228,2.31251835823059,2.31250739097595,2.31249833106995,2.31248927116394,2.31247925758362,2.31246829032898,2.31245923042297,2.31244850158691,2.31244039535522,2.31242942810059,2.31242036819458,2.31241059303284,2.31240057945251,2.31239056587219,2.31238079071045,2.31237077713013,2.31236100196838,2.31235027313232,2.31234216690063,2.312331199646,2.31232237815857,2.31231260299683,2.31230187416077,2.31229281425476,2.31228303909302,2.31227231025696,2.31226253509521,2.31225371360779,2.31224393844604,2.31223320960999,2.31222438812256,2.31221461296082,2.31220483779907,2.31219410896301,2.31218433380127,2.31217479705811,2.31216502189636,2.31215524673462,2.31214570999146,2.3121349811554,2.31212615966797,2.3121166229248,2.31210708618164,2.31209635734558,2.31208658218384,2.31207609176636,2.31206655502319,2.31205677986145,2.3120481967926,2.31203675270081,2.3120288848877,2.31201863288879,2.31200885772705,2.31199860572815,2.31198883056641,2.31197929382324,2.31196880340576,2.31195950508118
2.30009484291077,2.30008482933044,2.30007433891296,2.30006527900696,2.30005407333374,2.30004572868347,2.30003643035889,2.30002641677856,2.30001616477966,2.30000686645508,2.29999661445618,2.29998755455017,2.29997754096985,2.29996919631958,2.29995822906494,2.29994893074036,2.29993891716003,2.29992890357971,2.29991960525513,2.29991054534912,2.29989957809448,2.29989123344421,2.29987955093384,2.29987120628357,2.29986119270325,2.29985213279724,2.29984211921692,2.2998321056366,2.29982209205627,2.29981303215027,2.29980325698853,2.29979491233826,2.29978322982788,2.29977416992188,2.29976415634155,2.29975438117981,2.2997453212738,2.29973554611206,2.29972553253174,2.29971647262573,2.29970574378967,2.29969668388367,2.29968595504761,2.2996768951416,2.29966807365417,2.29965829849243,2.29964756965637,2.29963850975037,2.29962778091431,2.29961895942688,2.29960918426514,2.29960036277771,2.29959034919739,2.29957985877991,2.29957008361816,2.29956030845642,2.29955148696899,2.29954266548157,2.29953098297119,2.29952239990234,2.29951167106628,2.29950284957886,2.2994921207428,2.29948258399963,2.29947376251221,2.29946422576904,2.29945349693298,2.29944491386414,2.29943346977234,2.29942464828491,2.29941582679749,2.29940629005432,2.29939579963684,2.29938626289368,2.2993757724762,2.29936695098877,2.29935741424561,2.29934883117676,2.29933738708496,2.29932880401611,2.29931831359863,2.29930877685547,2.29929828643799,2.2992889881134,2.29928016662598,2.29927086830139,2.29925942420959,2.29925084114075,2.29923963546753,2.29923105239868,2.29922246932983,2.29921126365662,2.29920268058777,2.2991931438446,2.29918193817139,2.29917335510254,2.29916214942932,2.29915380477905,2.29914450645447,2.2991349697113,2.2991247177124,2.2991144657135,2.29910492897034,2.29909563064575,2.29908466339111,2.29907608032227,2.29906606674194,2.2990574836731,2.29904723167419,2.29903721809387,2.29902696609497,2.2990186214447,2.29900741577148,2.2989981174469,2.29898905754089,2.29897975921631,2.29896950721741,2.29896020889282,2.29894995689392,2.29894018173218,2.29893088340759,2.29892086982727,2.29891157150269,2.29890251159668,2.29889154434204,2.29888224601746,2.29887223243713,2.29886293411255,2.29885387420654,2.29884386062622,2.2988338470459,2.29882478713989,2.29881381988525,2.29880475997925,2.29879474639893,2.29878568649292,2.29877662658691,2.29876565933228,2.29875659942627,2.29874753952026,2.2987368106842,2.2987277507782,2.29871702194214,2.29870796203613,2.29869890213013,2.29868817329407,2.29867911338806,2.29866933822632,2.298659324646,2.29865050315857,2.29863953590393,2.2986307144165,2.29862093925476,2.29861092567444,2.29860210418701,2.29859232902527,2.29858160018921,2.29857349395752,2.29856204986572,2.2985532283783,2.29854226112366,2.29853343963623,2.29852485656738,2.29851508140564,2.29850435256958,2.29849481582642,2.29848480224609,2.29847598075867,2.29846453666687,2.29845595359802,2.29844617843628,2.29843640327454,2.29842758178711,2.29841804504395,2.29840922355652,2.29839873313904,2.29838919639587,2.29837870597839,2.29836893081665,2.29835915565491,2.29835057258606,2.29834008216858,2.29833149909973,2.29832100868225,2.29831147193909,2.29830169677734,2.29829239845276,2.29828190803528,2.29827237129211,2.29826188087463,2.29825329780579,2.29824376106262,2.29823517799377,2.29822492599487,2.29821538925171,2.29820489883423,2.29819560050964,2.29818511009216,2.29817652702332,2.2981653213501,2.29815673828125,2.29814648628235,2.2981379032135,2.2981276512146,2.29811835289001,2.29810786247253,2.29809784889221,2.29808807373047,2.29807901382446,2.29806852340698,2.2980592250824,2.29804992675781,2.29804062843323,2.29803133010864,2.29802107810974,2.29801082611084,2.29800248146057,2.29799127578735,2.29798197746277,2.29797101020813,2.29796266555786,2.29795336723328,2.29794430732727,2.29793405532837,2.29792380332947,2.29791378974915,2.29790544509888,2.29789447784424,2.29788517951965,2.29787421226501,2.29786586761475,2.29785680770874,2.2978458404541,2.29783749580383,2.29782843589783,2.29781746864319,2.29780840873718,2.29779744148254,2.29778933525085,2.29777908325195,2.29776930809021,2.29775905609131,2.29774928092957,2.29774022102356,2.29773020744324,2.29772019386292,2.29771208763123,2.29770135879517,2.29769229888916,2.29768228530884,2.29767227172852,2.29766225814819,2.29765248298645,2.29764270782471,2.2976336479187,2.29762387275696,2.29761385917664,2.29760503768921,2.29759526252747,2.29758524894714,2.2975754737854,2.29756546020508,2.29755687713623,2.29754590988159,2.29753708839417,2.29752635955811,2.29751753807068,2.29750871658325,2.29749703407288,2.29748916625977,2.2974796295166,2.29746890068054,2.29746007919312,2.29744935035706,2.29744052886963,2.29743075370789,2.29742121696472,2.29741048812866,2.29740071296692,2.29739117622375,2.29738235473633,2.29737281799316,2.2973620891571,2.29735255241394,2.29734396934509,2.29733419418335,2.29732465744019,2.29731416702271,2.29730463027954,2.29729390144348,2.29728531837463,2.29727482795715,2.29726624488831,2.29725480079651,2.29724621772766,2.29723763465881,2.29722619056702,2.29721784591675,2.29720902442932,2.2971978187561,2.29718923568726,2.29717803001404,2.29716920852661,2.29715967178345,2.29714941978455,2.29713988304138,2.29712963104248,2.29712009429932,2.29711174964905,2.29710030555725,2.29709196090698,2.29708170890808,2.29707312583923,2.29706287384033
2.28534984588623,2.28534078598022,2.28533053398132,2.28532218933105,2.28531217575073,2.28530216217041,2.28529214859009,2.2852828502655,2.28527283668518,2.28526449203491,2.28525471687317,2.28524446487427,2.28523540496826,2.28522539138794,2.28521537780762,2.28520727157593,2.28519535064697,2.28518724441528,2.28517818450928,2.28516745567322,2.28515839576721,2.28515028953552,2.28513836860657,2.28513026237488,2.28512048721313,2.28511047363281,2.28510141372681,2.28509068489075,2.28508162498474,2.28507280349731,2.28506183624268,2.28505396842957,2.28504323959351,2.2850341796875,2.28502368927002,2.28501462936401,2.28500485420227,2.28499603271484,2.28498697280884,2.28497624397278,2.28496742248535,2.28495764732361,2.28494691848755,2.28493905067444,2.28492832183838,2.28491950035095,2.28490972518921,2.28490018844604,2.2848904132843,2.28488159179688,2.28487086296082,2.28486323356628,2.28485059738159,2.28484296798706,2.28483414649963,2.28482341766357,2.28481388092041,2.28480339050293,2.2847945690155,2.28478598594666,2.28477621078491,2.28476667404175,2.28475713729858,2.28474640846252,2.28473782539368,2.2847273349762,2.28471779823303,2.2847101688385,2.28469967842102,2.28469014167786,2.28467965126038,2.28467011451721,2.28466057777405,2.28465032577515,2.28464150428772,2.28463220596313,2.28462266921997,2.28461313247681,2.28460288047791,2.28459429740906,2.28458380699158,2.28457450866699,2.28456497192383,2.28455567359924,2.28454613685608,2.28453683853149,2.28452658653259,2.28451704978943,2.28450679779053,2.28449749946594,2.28448891639709,2.28447961807251,2.28446841239929,2.28446006774902,2.28445076942444,2.28444147109985,2.28443121910095,2.28442168235779,2.28441071510315,2.2844033241272,2.28439211845398,2.28438377380371,2.28437447547913,2.28436517715454,2.2843542098999,2.28434491157532,2.284334897995,2.28432655334473,2.28431630134583,2.28430724143982,2.28429794311523,2.28428792953491,2.28427791595459,2.28426861763,2.28425860404968,2.2842493057251,2.28423953056335,2.28423118591309,2.28422021865845,2.28421115875244,2.28420209884644,2.28419208526611,2.28418207168579,2.28417277336121,2.28416299819946,2.28415489196777,2.28414368629456,2.28413486480713,2.28412580490112,2.2841157913208,2.28410577774048,2.28409695625305,2.28408694267273,2.28407692909241,2.28406715393066,2.28405904769897,2.28404808044434,2.28403925895691,2.2840301990509,2.28401970863342,2.28401064872742,2.28400063514709,2.28399085998535,2.28398108482361,2.28397130966187,2.28396320343018,2.28395247459412,2.28394365310669,2.28393387794495,2.28392505645752,2.28391432762146,2.28390550613403,2.28389477729797,2.28388595581055,2.2838761806488,2.28386735916138,2.2838568687439,2.28384804725647,2.28383827209473,2.2838294506073,2.28381896018982,2.28380918502808,2.28379964828491,2.28378987312317,2.28378009796143,2.28377151489258,2.2837610244751,2.28375315666199,2.28374266624451,2.28373408317566,2.28372359275818,2.28371381759644,2.28370428085327,2.28369474411011,2.28368496894836,2.28367638587952,2.28366494178772,2.28365731239319,2.28364586830139,2.28363823890686,2.28362798690796,2.28361845016479,2.28360891342163,2.28359866142273,2.2835898399353,2.2835795879364,2.28357005119324,2.28356242179871,2.28355026245117,2.28354263305664,2.28353309631348,2.28352284431458,2.28351330757141,2.28350305557251,2.28349375724792,2.28348422050476,2.28347396850586,2.28346562385559,2.28345537185669,2.28344678878784,2.28343653678894,2.28342723846436,2.28341794013977,2.28340768814087,2.28339838981628,2.2833890914917,2.2833788394928,2.28336954116821,2.28336024284363,2.28335022926331,2.28334069252014,2.28333163261414,2.28332138061523,2.28331303596497,2.28330278396606,2.28329372406006,2.28328347206116,2.28327441215515,2.28326511383057,2.28325510025024,2.28324604034424,2.28323483467102,2.28322577476501,2.28321838378906,2.28320646286011,2.28319811820984,2.2831871509552,2.28317904472351,2.2831699848175,2.28315901756287,2.28314995765686,2.28314089775085,2.28313088417053,2.28312182426453,2.28311085700989,2.28310179710388,2.28309273719788,2.28308391571045,2.28307294845581,2.2830638885498,2.28305387496948,2.28304600715637,2.28303503990173,2.28302621841431,2.28301620483398,2.28300642967224,2.28299736976624,2.28298735618591,2.28297758102417,2.28296875953674,2.28295803070068,2.28295087814331,2.28293919563293,2.28293108940125,2.28292036056519,2.28291153907776,2.28290176391602,2.28289198875427,2.28288221359253,2.2828733921051,2.28286361694336,2.28285384178162,2.28284311294556,2.28283452987671,2.2828254699707,2.28281497955322,2.2828061580658,2.28279662132263,2.28278589248657,2.28277802467346,2.28276658058167,2.28275871276855,2.28274989128113,2.28273940086365,2.28272986412048,2.28272008895874,2.28271055221558,2.28270173072815,2.28269124031067,2.28268146514893,2.28267192840576,2.2826623916626,2.28265285491943,2.28264331817627,2.28263378143311,2.28262519836426,2.28261470794678,2.28260612487793,2.28259468078613,2.28258728981018,2.28257751464844,2.28256726264954,2.28255844116211,2.28254818916321,2.28253865242004,2.28252911567688,2.28251886367798,2.28251028060913,2.28250002861023,2.28249049186707,2.28248119354248,2.282470703125,2.28246235847473,2.28245306015015,2.28244256973267,2.2824342250824,2.2824227809906,2.28241539001465,2.28240323066711,2.28239583969116,2.282386302948,2.28237628936768,2.28236699104309,2.28235769271851
2.2707941532135,2.27078485488892,2.27077484130859,2.27076578140259,2.27075552940369,2.27074646949768,2.27073740959167,2.27072834968567,2.27071738243103,2.27070903778076,2.27069902420044,2.27068996429443,2.27067995071411,2.27066993713379,2.2706618309021,2.27065277099609,2.27064180374146,2.27063369750977,2.27062368392944,2.2706139087677,2.27060389518738,2.27059483528137,2.27058601379395,2.27057790756226,2.2705659866333,2.27055811882019,2.27054715156555,2.27053833007812,2.27053022384644,2.27051949501038,2.27051043510437,2.27050065994263,2.27049088478088,2.27048277854919,2.27047109603882,2.27046322822571,2.2704541683197,2.27044463157654,2.27043461799622,2.27042508125305,2.27041506767273,2.27040719985962,2.27039551734924,2.27038764953613,2.27037811279297,2.27036929130554,2.2703595161438,2.27034974098206,2.27033996582031,2.27033042907715,2.27032065391541,2.27031183242798,2.27030229568481,2.27029347419739,2.27028298377991,2.27027416229248,2.27026462554932,2.27025485038757,2.27024531364441,2.27023649215698,2.27022695541382,2.27021741867065,2.27020788192749,2.27019929885864,2.27018857002258,2.270179271698,2.27016949653625,2.27016019821167,2.27015137672424,2.27014183998108,2.27013254165649,2.27012372016907,2.27011251449585,2.270103931427,2.27009439468384,2.27008509635925,2.27007460594177,2.27006602287292,2.27005672454834,2.27004814147949,2.27003765106201,2.27002906799316,2.27001881599426,2.27000951766968,2.2699990272522,2.26998972892761,2.26998138427734,2.2699728012085,2.26996159553528,2.26995325088501,2.26994299888611,2.26993441581726,2.26992416381836,2.26991486549377,2.26990461349487,2.26989531517029,2.26988697052002,2.26987862586975,2.26986742019653,2.26985907554626,2.26984882354736,2.26983976364136,2.26982951164246,2.26982021331787,2.26981210708618,2.2698016166687,2.26979160308838,2.26978349685669,2.26977229118347,2.2697639465332,2.26975393295288,2.26974487304688,2.26973462104797,2.26972556114197,2.2697172164917,2.26970815658569,2.26969718933105,2.26968908309937,2.26967883110046,2.26966977119446,2.26965975761414,2.26964974403381,2.26964068412781,2.2696316242218,2.2696225643158,2.26961350440979,2.26960277557373,2.26959466934204,2.26958441734314,2.26957559585571,2.26956558227539,2.26955580711365,2.26954579353333,2.26953768730164,2.26952791213989,2.2695198059082,2.26950883865356,2.26950001716614,2.26949000358582,2.26948022842407,2.26947045326233,2.26946234703064,2.26945161819458,2.26944279670715,2.26943373680115,2.2694239616394,2.26941514015198,2.26940536499023,2.26939558982849,2.26938581466675,2.269376039505,2.26936817169189,2.26935744285583,2.26934862136841,2.26933789253235,2.26932907104492,2.26932048797607,2.26931142807007,2.26930093765259,2.26929306983948,2.26928162574768,2.26927375793457,2.26926231384277,2.26925444602966,2.26924467086792,2.26923513412476,2.26922631263733,2.26921582221985,2.269207239151,2.26919865608215,2.26918792724609,2.26917934417725,2.26916861534119,2.26916003227234,2.26914954185486,2.26914095878601,2.26913046836853,2.26912093162537,2.26911234855652,2.26910281181335,2.26909327507019,2.26908493041992,2.26907515525818,2.26906585693359,2.26905632019043,2.26904582977295,2.26903629302979,2.26902794837952,2.26901745796204,2.26900887489319,2.26899766921997,2.26898908615112,2.26898074150085,2.26897120475769,2.26896190643311,2.26895260810852,2.26894211769104,2.26893377304077,2.26892328262329,2.26891493797302,2.26890468597412,2.26889538764954,2.26888513565063,2.26887583732605,2.26886749267578,2.26885795593262,2.26884794235229,2.26883959770203,2.26882934570312,2.26882004737854,2.26881074905396,2.26880168914795,2.26879143714905,2.26878213882446,2.26877188682556,2.26876354217529,2.26875257492065,2.26874423027039,2.26873517036438,2.26872491836548,2.26871681213379,2.26870679855347,2.26869750022888,2.26868939399719,2.26867818832397,2.26866936683655,2.26865911483765,2.26865005493164,2.26864075660706,2.26863074302673,2.26862168312073,2.26861166954041,2.26860165596008,2.26859354972839,2.26858448982239,2.26857447624207,2.26856470108032,2.26855635643005,2.26854634284973,2.2685375213623,2.26852750778198,2.26851773262024,2.26850771903992,2.26849961280823,2.26848864555359,2.26848077774048,2.26847076416016,2.26846098899841,2.26845097541809,2.26844215393066,2.26843333244324,2.26842331886292,2.26841449737549,2.26840567588806,2.268394947052,2.26838684082031,2.26837706565857,2.26836729049683,2.26835751533508,2.26834774017334,2.2683379650116,2.26833009719849,2.26831912994385,2.268310546875,2.26830077171326,2.26829123497009,2.26828122138977,2.26827168464661,2.2682638168335,2.26825404167175,2.26824450492859,2.26823568344116,2.26822519302368,2.26821637153625,2.26820659637451,2.26819801330566,2.2681872844696,2.26817893981934,2.26816821098328,2.26816034317017,2.26814889907837,2.26814126968384,2.26812982559204,2.26812195777893,2.26811146736145,2.2681028842926,2.26809239387512,2.26808476448059,2.26807522773743,2.26806473731995,2.26805543899536,2.26804566383362,2.26803708076477,2.26802778244019,2.26801824569702,2.26800870895386,2.26799917221069,2.26799058914185,2.26797962188721,2.2679717540741,2.26796054840088,2.26795220375061,2.26794266700745,2.26793336868286,2.26792287826538,2.26791524887085,2.26790404319763,2.26789569854736,2.26788544654846,2.26787686347961,2.26786661148071,2.26785755157471,2.26784896850586,2.26783776283264
2.25642156600952,2.25641131401062,2.25640392303467,2.25639390945435,2.25638461112976,2.25637459754944,2.25636529922485,2.25635600090027,2.25634694099426,2.25633788108826,2.25632858276367,2.25631856918335,2.25630950927734,2.25629925727844,2.25629210472107,2.25628089904785,2.25627279281616,2.25626373291016,2.25625276565552,2.25624370574951,2.25623464584351,2.25622463226318,2.25621747970581,2.25620555877686,2.25619745254517,2.25618839263916,2.25617861747742,2.25616955757141,2.25615954399109,2.25615048408508,2.25614237785339,2.25613260269165,2.25612354278564,2.25611448287964,2.25610375404358,2.25609469413757,2.25608587265015,2.25607585906982,2.25606799125671,2.25605821609497,2.25604844093323,2.25603842735291,2.25602960586548,2.25602054595947,2.25601196289062,2.25600099563599,2.25599217414856,2.25598335266113,2.25597453117371,2.25596380233765,2.25595498085022,2.25594615936279,2.25593733787537,2.25592660903931,2.25591802597046,2.25590920448303,2.25589942932129,2.25588965415955,2.25588011741638,2.25587034225464,2.25586247444153,2.25585198402405,2.25584316253662,2.25583457946777,2.25582385063171,2.25581526756287,2.2558057308197,2.25579595565796,2.25578641891479,2.25577664375305,2.25576901435852,2.25575947761536,2.25574994087219,2.25574040412903,2.2557315826416,2.25572109222412,2.25571250915527,2.25570201873779,2.25569438934326,2.25568389892578,2.25567555427551,2.25566601753235,2.25565648078918,2.25564694404602,2.25563836097717,2.25562810897827,2.25562047958374,2.25560903549194,2.25560069084167,2.25559210777283,2.25558185577393,2.25557231903076,2.25556373596191,2.25555348396301,2.25554418563843,2.25553464889526,2.25552654266357,2.25551605224609,2.25550770759583,2.25549817085266,2.25548815727234,2.25547957420349,2.25547027587891,2.25546002388,2.25545263290405,2.25544238090515,2.25543308258057,2.25542378425598,2.25541353225708,2.25540518760681,2.25539517402649,2.25538682937622,2.25537657737732,2.25536823272705,2.25535893440247,2.25534987449646,2.25533962249756,2.25533056259155,2.25532031059265,2.25531125068665,2.25530290603638,2.25529384613037,2.25528359413147,2.25527453422546,2.25526547431946,2.25525641441345,2.25524616241455,2.25523710250854,2.25522708892822,2.25521802902222,2.25520896911621,2.25520086288452,2.25518989562988,2.25518274307251,2.25517272949219,2.25516366958618,2.25515270233154,2.25514364242554,2.25513458251953,2.25512480735779,2.25511574745178,2.25510668754578,2.25509691238403,2.25508880615234,2.25507879257202,2.25506973266602,2.25505995750427,2.25505113601685,2.25504207611084,2.25503134727478,2.25502228736877,2.25501251220703,2.2550036907196,2.25499582290649,2.25498390197754,2.25497698783875,2.25496792793274,2.25495743751526,2.25494861602783,2.25493884086609,2.25493001937866,2.25492024421692,2.25491046905518,2.25490260124207,2.25489091873169,2.2548840045929,2.25487327575684,2.25486445426941,2.25485563278198,2.2548451423645,2.25483632087708,2.25482749938965,2.25481724739075,2.25480842590332,2.25479960441589,2.25479006767273,2.25478029251099,2.25477170944214,2.25476121902466,2.25475335121155,2.25474286079407,2.25473427772522,2.25472474098206,2.25471496582031,2.25470638275146,2.25469589233398,2.25468730926514,2.25467872619629,2.25466823577881,2.25466060638428,2.25464916229248,2.25464153289795,2.25463128089905,2.25462245941162,2.25461292266846,2.25460267066956,2.25459408760071,2.25458455085754,2.25457501411438,2.25456571578979,2.25455641746521,2.25454783439636,2.25453758239746,2.25452899932861,2.25452041625977,2.25451016426086,2.25450086593628,2.25449228286743,2.25448203086853,2.25447273254395,2.25446343421936,2.2544538974762,2.25444459915161,2.25443458557129,2.25442600250244,2.25441861152649,2.25440645217896,2.254399061203,2.2543888092041,2.25438046455383,2.25437116622925,2.25436115264893,2.25435185432434,2.25434160232544,2.25433325767517,2.25432395935059,2.25431394577026,2.25430488586426,2.25429463386536,2.2542872428894,2.25427722930908,2.2542679309845,2.25425791740417,2.25424885749817,2.2542405128479,2.25423145294189,2.25422143936157,2.25421214103699,2.25420308113098,2.25419306755066,2.25418400764465,2.25417399406433,2.25416493415833,2.25415587425232,2.254145860672,2.25413870811462,2.25412678718567,2.2541196346283,2.25410866737366,2.25410056114197,2.25409150123596,2.25408172607422,2.25407266616821,2.25406360626221,2.25405383110046,2.25404477119446,2.25403571128845,2.25402498245239,2.25401616096497,2.25400614738464,2.25399732589722,2.25399017333984,2.25397849082947,2.25397038459778,2.25395965576172,2.25395178794861,2.25394105911255,2.25393319129944,2.25392413139343,2.25391364097595,2.25390458106995,2.25389575958252,2.25388598442078,2.25387716293335,2.25386667251587,2.25385785102844,2.25384902954102,2.25383925437927,2.25382947921753,2.2538206577301,2.25381112098694,2.25380325317383,2.25379157066345,2.25378394126892,2.25377416610718,2.25376558303833,2.25375485420227,2.25374627113342,2.253737449646,2.25372862815857,2.25371813774109,2.25370955467224,2.25369906425476,2.25369048118591,2.25368189811707,2.25367116928101,2.25366258621216,2.25365209579468,2.25364375114441,2.2536346912384,2.2536244392395,2.25361585617065,2.25360631942749,2.25359773635864,2.25358724594116,2.25357890129089,2.25356841087341,2.25356078147888,2.25354933738708,2.25354194641113,2.25353240966797,2.25352311134338,2.25351452827454,2.25350403785706
2.24223041534424,2.24222016334534,2.24221158027649,2.24220132827759,2.24219298362732,2.24218344688416,2.24217510223389,2.2421658039093,2.24215650558472,2.24214625358582,2.24213695526123,2.24212765693665,2.24211931228638,2.24211001396179,2.24210166931152,2.24209070205688,2.24208211898804,2.24207282066345,2.24206376075745,2.24205541610718,2.24204540252686,2.24203610420227,2.242027759552,2.24201679229736,2.24200844764709,2.24199914932251,2.24198913574219,2.24198079109192,2.24197173118591,2.24196243286133,2.24195337295532,2.241943359375,2.24193501472473,2.24192523956299,2.24191689491272,2.24190783500671,2.24189782142639,2.24188852310181,2.24187874794006,2.24186968803406,2.24186158180237,2.24185156822205,2.24184346199036,2.24183249473572,2.24182438850403,2.24181437492371,2.24180555343628,2.24179553985596,2.24178743362427,2.24177837371826,2.24176955223083,2.24175882339478,2.24175071716309,2.24174070358276,2.24173188209534,2.24172377586365,2.24171304702759,2.24170398712158,2.24169611930847,2.24168539047241,2.2416775226593,2.24166655540466,2.24165773391724,2.24164986610413,2.24164009094238,2.24163103103638,2.24162220954895,2.24161148071289,2.24160361289978,2.2415931224823,2.24158430099487,2.24157643318176,2.24156665802002,2.24155688285828,2.24154806137085,2.24153828620911,2.24152970314026,2.24151921272278,2.24151110649109,2.24150156974792,2.2414927482605,2.24148321151733,2.24147462844849,2.24146485328674,2.24145531654358,2.24144554138184,2.24143695831299,2.24142813682556,2.24141955375671,2.24141001701355,2.24140048027039,2.24139070510864,2.24138140678406,2.24137163162231,2.24136400222778,2.24135446548462,2.24134588241577,2.24133563041687,2.24132680892944,2.24131751060486,2.24130797386169,2.24129843711853,2.24128890037537,2.24128127098083,2.24127101898193,2.24126243591309,2.24125385284424,2.24124431610107,2.24123501777649,2.24122548103333,2.24121618270874,2.24120593070984,2.24119830131531,2.24118900299072,2.24118041992188,2.24116921424866,2.24116182327271,2.24115133285522,2.24114227294922,2.24113273620605,2.24112343788147,2.2411150932312,2.24110674858093,2.24109649658203,2.24108815193176,2.24107694625854,2.24106955528259,2.24105930328369,2.24105000495911,2.24104070663452,2.24103236198425,2.24102330207825,2.24101495742798,2.24100399017334,2.24099564552307,2.24098634719849,2.2409770488739,2.24096703529358,2.24095797538757,2.2409496307373,2.24093961715698,2.2409303188324,2.24092221260071,2.24091196060181,2.24090385437012,2.24089360237122,2.24088478088379,2.24087452888489,2.2408664226532,2.24085736274719,2.2408492565155,2.24083828926086,2.24083018302917,2.24082016944885,2.24081110954285,2.24080204963684,2.2407922744751,2.24078297615051,2.24077415466309,2.24076509475708,2.24075698852539,2.24074625968933,2.24073815345764,2.24072813987732,2.24071931838989,2.24070930480957,2.24070048332214,2.24069046974182,2.24068260192871,2.24067258834839,2.24066376686096,2.24065470695496,2.24064588546753,2.24063611030579,2.24062728881836,2.24061751365662,2.24060964584351,2.24059891700745,2.24059009552002,2.24058127403259,2.24057126045227,2.24056339263916,2.24055361747742,2.24054408073425,2.24053525924683,2.24052548408508,2.24051761627197,2.24050688743591,2.24049830436707,2.24048852920532,2.2404797077179,2.24047088623047,2.24046230316162,2.24045252799988,2.24044394493103,2.24043345451355,2.24042558670044,2.24041509628296,2.24040627479553,2.24039673805237,2.24038696289062,2.24037742614746,2.24036884307861,2.24036026000977,2.24035239219666,2.24034214019775,2.24033331871033,2.24032306671143,2.240314245224,2.24030470848083,2.24029541015625,2.24028587341309,2.24027800559998,2.24026679992676,2.24025917053223,2.24024963378906,2.24024128913879,2.24023151397705,2.24022221565247,2.2402126789093,2.24020338058472,2.24019384384155,2.2401864528656,2.2401750087738,2.24016761779785,2.24015617370605,2.24014782905579,2.24014043807983,2.24013113975525,2.24012160301208,2.24011301994324,2.2401020526886,2.24009442329407,2.24008345603943,2.24007511138916,2.240065574646,2.24005627632141,2.24004697799683,2.24003767967224,2.24002957344055,2.24002003669739,2.24001097679138,2.24000263214111,2.2399914264679,2.23998403549194,2.23997378349304,2.23996472358704,2.23995542526245,2.23994636535645,2.23993611335754,2.23992776870728,2.23991775512695,2.23990964889526,2.239901304245,2.23989033699036,2.23988199234009,2.23987293243408,2.23986387252808,2.23985552787781,2.23984479904175,2.23983645439148,2.23982548713684,2.23981738090515,2.23980832099915,2.23979926109314,2.23978924751282,2.23978018760681,2.23977017402649,2.2397620677948,2.23975300788879,2.23974394798279,2.23973512649536,2.23972606658936,2.23971700668335,2.23970723152161,2.23969793319702,2.23969006538391,2.23967909812927,2.23967123031616,2.2396605014801,2.23965239524841,2.23964238166809,2.23963356018066,2.23962378501892,2.23961496353149,2.23960590362549,2.23959684371948,2.23958730697632,2.23957943916321,2.23956871032715,2.23956060409546,2.23955273628235,2.23954224586487,2.23953318595886,2.23952436447144,2.23951482772827,2.23950505256653,2.2394962310791,2.23948645591736,2.23947858810425,2.23946785926819,2.23945927619934,2.23944926261902,2.23944067955017,2.23943090438843,2.23942232131958,2.23941349983215,2.23940300941467,2.23939514160156,2.23938655853271,2.23937582969666,2.23936820030212,2.23935866355896,2.2393491268158
2.22821545600891,2.22820663452148,2.22819709777832,2.22818756103516,2.22818064689636,2.22816944122314,2.22816157341003,2.22815108299255,2.22814249992371,2.22813391685486,2.22812533378601,2.22811484336853,2.22810626029968,2.22809767723083,2.22808814048767,2.22807860374451,2.22807097434998,2.22806072235107,2.22805213928223,2.22804260253906,2.22803330421448,2.22802376747131,2.22801613807678,2.22800493240356,2.22799730300903,2.22798776626587,2.22797846794128,2.22796988487244,2.22796154022217,2.22795128822327,2.227942943573,2.22793340682983,2.22792506217957,2.22791481018066,2.22790551185608,2.22789621353149,2.22788858413696,2.22787928581238,2.22786903381348,2.22786068916321,2.22785139083862,2.22784209251404,2.22783374786377,2.22782468795776,2.22781538963318,2.22780609130859,2.22779679298401,2.22778749465942,2.22777938842773,2.22776913642883,2.22776079177856,2.22775173187256,2.22774243354797,2.22773241996765,2.2277250289917,2.2277147769928,2.22770595550537,2.2276976108551,2.22768831253052,2.22767853736877,2.22766923904419,2.22765922546387,2.22765183448792,2.22764277458191,2.22763276100159,2.2276246547699,2.22761464118958,2.22760558128357,2.2275984287262,2.22758650779724,2.22757935523987,2.22756934165955,2.22756052017212,2.22755122184753,2.22754335403442,2.22753238677979,2.22752451896667,2.22751522064209,2.22750639915466,2.22749638557434,2.22748756408691,2.22747850418091,2.22746968269348,2.22745966911316,2.22745084762573,2.22744202613831,2.2274329662323,2.22742319107056,2.22741413116455,2.22740459442139,2.22739744186401,2.22738862037659,2.22737860679626,2.22736978530884,2.22735905647278,2.22735047340393,2.22734332084656,2.22733187675476,2.22732472419739,2.22731590270996,2.22730541229248,2.22729659080505,2.22728681564331,2.22727799415588,2.22727012634277,2.22726058959961,2.22725176811218,2.22724199295044,2.22723245620728,2.22722363471985,2.22721409797668,2.22720527648926,2.22719669342041,2.22718787193298,2.22717928886414,2.22716879844666,2.22715997695923,2.22715044021606,2.22714281082153,2.22713232040405,2.22712373733521,2.22711491584778,2.22710633277893,2.22709679603577,2.2270872592926,2.22707772254944,2.22707009315491,2.22705960273743,2.22705125808716,2.22704243659973,2.22703218460083,2.22702360153198,2.22701501846313,2.22700452804565,2.2269971370697,2.22698569297791,2.22697901725769,2.22696971893311,2.22696018218994,2.22695088386536,2.22694158554077,2.22693204879761,2.22692441940308,2.22691321372986,2.22690582275391,2.22689723968506,2.22688698768616,2.22687864303589,2.22686839103699,2.22686004638672,2.22685241699219,2.22684144973755,2.22683382034302,2.2268238067627,2.22681450843811,2.22680592536926,2.22679591178894,2.22678756713867,2.2267792224884,2.22676801681519,2.22676062583923,2.22675156593323,2.22674226760864,2.22673296928406,2.22672390937805,2.22671461105347,2.22670435905457,2.22669625282288,2.22668886184692,2.22667694091797,2.22666954994202,2.22665953636169,2.22665143013,2.226642370224,2.2266321182251,2.22662377357483,2.2266149520874,2.2266047000885,2.22659754753113,2.22658753395081,2.22657871246338,2.22656869888306,2.22656035423279,2.22655129432678,2.22654151916504,2.22653222084045,2.22652530670166,2.22651338577271,2.22650623321533,2.22649621963501,2.226487159729,2.226478099823,2.22646856307983,2.22646045684814,2.22645139694214,2.2264416217804,2.22643351554871,2.22642374038696,2.22641563415527,2.22640490531921,2.22639679908752,2.2263879776001,2.22637820243835,2.22636914253235,2.22636103630066,2.2263503074646,2.22634267807007,2.22633290290833,2.22632384300232,2.22631502151489,2.22630524635315,2.22629642486572,2.22628688812256,2.22627806663513,2.22627019882202,2.22625946998596,2.22625160217285,2.22624182701111,2.22623300552368,2.22622418403625,2.22621464729309,2.22620606422424,2.22619533538818,2.22618675231934,2.22617959976196,2.22616815567017,2.22616052627563,2.22615170478821,2.22614216804504,2.22613334655762,2.22612380981445,2.22611427307129,2.22610569000244,2.22609615325928,2.22608828544617,2.226078748703,2.22607016563416,2.22606158256531,2.22605133056641,2.22604250907898,2.22603392601013,2.22602343559265,2.22601675987244,2.22600650787354,2.22599792480469,2.22598910331726,2.22597885131836,2.22597050666809,2.22596073150635,2.22595143318176,2.22594380378723,2.22593355178833,2.2259259223938,2.2259156703949,2.22590708732605,2.22589778900146,2.22588849067688,2.22587990760803,2.22586941719055,2.22586107254028,2.2258517742157,2.22584247589111,2.22583508491516,2.22582387924194,2.22581648826599,2.22580718994141,2.22579789161682,2.22578835487366,2.22578001022339,2.22576975822449,2.22576141357422,2.2257513999939,2.22574281692505,2.22573375701904,2.22572541236877,2.22571516036987,2.22570705413818,2.2256977558136,2.22568964958191,2.22567915916443,2.22567105293274,2.22566103935242,2.22565174102783,2.22564339637756,2.22563338279724,2.22562432289124,2.22561693191528,2.22560620307922,2.22559881210327,2.22558760643005,2.22558045387268,2.22557139396667,2.22556138038635,2.22555232048035,2.22554326057434,2.22553420066833,2.22552490234375,2.22551512718201,2.22550702095032,2.22549700737,2.22548985481262,2.22547888755798,2.22547101974487,2.22546195983887,2.22545218467712,2.22544384002686,2.22543478012085,2.22542500495911,2.2254159450531,2.22540712356567,2.22539710998535,2.22538924217224,2.2253794670105,2.22537040710449
2.21437573432922,2.21436786651611,2.21435713768005,2.21434903144836,2.2143383026123,2.21433019638062,2.21432209014893,2.21431231498718,2.21430325508118,2.21429443359375,2.21428561210632,2.21427750587463,2.21426701545715,2.21425890922546,2.21424913406372,2.21424007415771,2.2142322063446,2.21422243118286,2.21421360969543,2.21420478820801,2.21419501304626,2.21418619155884,2.21417737007141,2.2141695022583,2.21415972709656,2.21415019035339,2.21414232254028,2.21413350105286,2.21412372589111,2.21411514282227,2.21410441398621,2.2140965461731,2.21408867835999,2.21407914161682,2.21406960487366,2.21406078338623,2.21405124664307,2.21404242515564,2.21403384208679,2.21402525901794,2.21401643753052,2.21400690078735,2.21399927139282,2.21398949623108,2.21398115158081,2.21397042274475,2.21396279335022,2.21395325660706,2.21394371986389,2.21393609046936,2.2139265537262,2.21391701698303,2.2139093875885,2.21389818191528,2.21389031410217,2.2138819694519,2.21387338638306,2.21386384963989,2.21385431289673,2.21384501457214,2.2138364315033,2.21382808685303,2.21381950378418,2.21380925178528,2.21380066871643,2.21379232406616,2.21378207206726,2.21377348899841,2.21376514434814,2.21375560760498,2.21374726295471,2.21373796463013,2.21372961997986,2.21372008323669,2.21371102333069,2.21370148658752,2.21369218826294,2.21368479728699,2.21367645263672,2.21366548538208,2.21365785598755,2.21364688873291,2.21363925933838,2.21363091468811,2.2136218547821,2.21361255645752,2.21360325813293,2.21359324455261,2.21358489990234,2.21357583999634,2.21356844902039,2.21355748176575,2.21354913711548,2.21353983879089,2.21353077888489,2.2135226726532,2.21351432800293,2.21350431442261,2.21349620819092,2.2134850025177,2.21347689628601,2.21346879005432,2.21345973014832,2.21345067024231,2.21344137191772,2.21343159675598,2.21342325210571,2.21341443061829,2.21340608596802,2.21339631080627,2.21338820457458,2.21337819099426,2.21336913108826,2.21336102485657,2.21335291862488,2.21334218978882,2.21333408355713,2.21332430839539,2.2133162021637,2.21330714225769,2.21329832077026,2.21328926086426,2.21327948570251,2.21327042579651,2.2132625579834,2.21325182914734,2.21324372291565,2.21323490142822,2.2132260799408,2.21321702003479,2.21320819854736,2.21319842338562,2.21318960189819,2.21318078041077,2.21317291259766,2.2131621837616,2.21315431594849,2.21314454078674,2.21313571929932,2.21312785148621,2.21311807632446,2.21310925483704,2.21310067176819,2.21309089660645,2.21308207511902,2.21307325363159,2.21306562423706,2.21305584907532,2.21304631233215,2.21303749084473,2.21302795410156,2.21301817893982,2.21301054954529,2.21300101280212,2.21299314498901,2.21298336982727,2.21297478675842,2.21296525001526,2.21295571327209,2.21294808387756,2.21293950080872,2.21292901039124,2.21292114257812,2.21291089057922,2.21290302276611,2.21289443969727,2.21288394927979,2.21287631988525,2.21286702156067,2.2128574848175,2.21284890174866,2.21283841133118,2.21283102035522,2.21282148361206,2.21281385421753,2.21280431747437,2.21279501914978,2.21278548240662,2.21277713775635,2.2127685546875,2.21275925636292,2.21274971961975,2.21274137496948,2.2127320766449,2.21272349357605,2.21271324157715,2.21270489692688,2.21269655227661,2.21268796920776,2.21267771720886,2.21267032623291,2.21265912055969,2.21265172958374,2.21264147758484,2.21263313293457,2.2126247882843,2.2126157283783,2.21260619163513,2.21259784698486,2.21258759498596,2.21257948875427,2.212571144104,2.21256113052368,2.21255278587341,2.21254372596741,2.21253442764282,2.21252608299255,2.21251583099365,2.21250772476196,2.21249866485596,2.21249032020569,2.21248126029968,2.2124719619751,2.21246290206909,2.21245384216309,2.21244382858276,2.21243643760681,2.21242737770081,2.21241927146912,2.21240925788879,2.21240019798279,2.2123908996582,2.21238207817078,2.21237206459045,2.21236491203308,2.21235489845276,2.21234679222107,2.21233677864075,2.21232867240906,2.21231961250305,2.21230983734131,2.2123007774353,2.21229195594788,2.21228384971619,2.2122757434845,2.21226501464844,2.21225690841675,2.212247133255,2.21223831176758,2.21222925186157,2.21222043037415,2.21221232414246,2.21220445632935,2.21219372749329,2.2121856212616,2.21217489242554,2.21216702461243,2.21215724945068,2.21214842796326,2.21214032173157,2.21213173866272,2.2121217250824,2.21211385726929,2.21210336685181,2.2120954990387,2.21208477020264,2.21207690238953,2.21206903457642,2.21205949783325,2.21205067634583,2.21204280853271,2.21203207969666,2.21202349662781,2.21201372146606,2.21200513839722,2.21199727058411,2.21198678016663,2.21197891235352,2.21197032928467,2.2119607925415,2.21195197105408,2.21194243431091,2.21193385124207,2.21192312240601,2.21191549301147,2.21190786361694,2.21189832687378,2.21188879013062,2.21187996864319,2.2118706703186,2.21186208724976,2.21185231208801,2.21184372901917,2.21183609962463,2.21182584762573,2.21181726455688,2.21180868148804,2.21179914474487,2.2117908000946,2.2117805480957,2.21177291870117,2.21176218986511,2.21175384521484,2.21174645423889,2.21173715591431,2.21172738075256,2.21171808242798,2.21170878410339,2.21170139312744,2.21169090270996,2.21168255805969,2.21167302131653,2.21166396141052,2.21165609359741,2.21164703369141,2.21163773536682,2.21162939071655,2.21161913871765,2.21161150932312,2.21160054206848,2.21159291267395,2.21158361434937,2.21157431602478,2.21156620979309
2.20070648193359,2.20069813728333,2.20068883895874,2.20068025588989,2.20067000389099,2.20066261291504,2.20065426826477,2.20064401626587,2.2006356716156,2.20062732696533,2.20061802864075,2.20060968399048,2.20059943199158,2.20059204101562,2.20058083534241,2.20057344436646,2.20056509971619,2.20055508613586,2.20054578781128,2.20053768157959,2.20052909851074,2.20052003860474,2.20051074028015,2.20050263404846,2.20049333572388,2.20048427581787,2.2004759311676,2.2004668712616,2.20045852661133,2.20044946670532,2.200439453125,2.20043206214905,2.20042300224304,2.20041394233704,2.20040488243103,2.20039677619934,2.20038652420044,2.20037770271301,2.20036959648132,2.20036053657532,2.200350522995,2.20034337043762,2.2003333568573,2.20032429695129,2.2003161907196,2.20030736923218,2.20029902458191,2.20029020309448,2.20028018951416,2.20027303695679,2.20026135444641,2.20025420188904,2.20024538040161,2.20023536682129,2.20022654533386,2.20021843910217,2.20020961761475,2.20020055770874,2.200190782547,2.20018362998962,2.20017409324646,2.20016503334045,2.20015621185303,2.20014834403992,2.20013761520386,2.20012974739075,2.20012068748474,2.20011210441589,2.20010209083557,2.20009446144104,2.20008540153503,2.20007586479187,2.20006704330444,2.20005917549133,2.20005035400391,2.20004153251648,2.20003175735474,2.20002412796021,2.20001339912415,2.20000553131104,2.19999694824219,2.19998717308044,2.1999785900116,2.19996976852417,2.19996118545532,2.1999523639679,2.19994282722473,2.1999351978302,2.19992542266846,2.19991683959961,2.19990825653076,2.19989848136902,2.19988989830017,2.19988226890564,2.19987273216248,2.19986319541931,2.19985365867615,2.19984698295593,2.19983744621277,2.1998279094696,2.19981932640076,2.19980978965759,2.19980025291443,2.19979357719421,2.19978332519531,2.19977474212646,2.19976544380188,2.19975781440735,2.1997492313385,2.1997389793396,2.19973039627075,2.1997218132019,2.199711561203,2.19970488548279,2.19969463348389,2.19968605041504,2.19967770576477,2.1996693611145,2.19966006278992,2.19965076446533,2.19964122772217,2.1996328830719,2.19962358474731,2.19961619377136,2.19960570335388,2.19959735870361,2.19958806037903,2.19957995414734,2.19957041740417,2.19956302642822,2.19955277442932,2.19954466819763,2.19953441619873,2.19952702522278,2.19951868057251,2.19950866699219,2.19950032234192,2.19949007034302,2.19948101043701,2.19947361946106,2.19946455955505,2.19945526123047,2.19944620132446,2.19943881034851,2.19942855834961,2.19941973686218,2.19941139221191,2.19940137863159,2.19939303398132,2.19938588142395,2.19937586784363,2.19936680793762,2.19935846328735,2.19934868812561,2.1993396282196,2.19933152198792,2.19932246208191,2.19931435585022,2.1993043422699,2.19929695129395,2.19928622245789,2.1992781162262,2.19927000999451,2.19926023483276,2.19925117492676,2.19924306869507,2.19923400878906,2.19922518730164,2.19921541213989,2.1992073059082,2.1991982460022,2.19919037818909,2.19918131828308,2.19917154312134,2.19916272163391,2.19915366172791,2.19914388656616,2.19913697242737,2.19912695884705,2.19911813735962,2.19911003112793,2.19910144805908,2.19909143447876,2.19908285140991,2.19907379150391,2.1990659236908,2.19905614852905,2.19904851913452,2.19903779029846,2.19902992248535,2.19902110099792,2.19901132583618,2.19900274276733,2.19899559020996,2.1989860534668,2.19897723197937,2.19896769523621,2.1989586353302,2.19895005226135,2.1989414691925,2.19893288612366,2.19892334938049,2.19891428947449,2.19890570640564,2.19889616966248,2.19888854026794,2.19887900352478,2.19887018203735,2.19886159896851,2.19885206222534,2.19884324073792,2.19883561134338,2.19882607460022,2.19881749153137,2.19880795478821,2.19879937171936,2.19879078865051,2.19878220558167,2.19877362251282,2.19876432418823,2.1987566947937,2.19874620437622,2.19873762130737,2.19872903823853,2.19871973991394,2.19871115684509,2.19870352745056,2.19869232177734,2.19868469238281,2.19867539405823,2.19866681098938,2.19865846633911,2.19864821434021,2.19863963127136,2.19863224029541,2.19862270355225,2.19861435890198,2.19860434532166,2.19859576225281,2.19858717918396,2.19857907295227,2.19856977462769,2.1985604763031,2.19855189323425,2.19854259490967,2.19853329658508,2.19852590560913,2.19851589202881,2.19850754737854,2.19849920272827,2.19848895072937,2.1984806060791,2.19847321510315,2.19846320152283,2.19845485687256,2.19844484329224,2.19843649864197,2.19842743873596,2.19841909408569,2.19840884208679,2.1984007358551,2.19839262962341,2.19838333129883,2.19837427139282,2.19836688041687,2.19835615158081,2.19834876060486,2.19833970069885,2.19832968711853,2.19832158088684,2.19831156730652,2.19830322265625,2.19829607009888,2.19828629493713,2.19827723503113,2.19826912879944,2.19825911521912,2.19825005531311,2.19824194908142,2.1982319355011,2.1982250213623,2.19821500778198,2.19820594787598,2.19819712638855,2.19818806648254,2.19817900657654,2.19817113876343,2.19816207885742,2.19815325737,2.19814419746399,2.19813537597656,2.19812560081482,2.19811844825745,2.19810771942139,2.19809985160828,2.19809174537659,2.19808197021484,2.19807314872742,2.19806599617004,2.19805431365967,2.19804763793945,2.19803786277771,2.1980288028717,2.19801998138428,2.19801139831543,2.19800233840942,2.19799375534058,2.19798398017883,2.19797706604004,2.1979672908783,2.19795870780945,2.19794893264771,2.19794011116028,2.19793128967285
2.18720459938049,2.1871976852417,2.18718791007996,2.18718004226685,2.18717098236084,2.18716216087341,2.18715238571167,2.18714451789856,2.18713569641113,2.18712687492371,2.18711709976196,2.18710827827454,2.18710041046143,2.18709254264832,2.18708205223083,2.18707394599915,2.18706440925598,2.18705654144287,2.18704700469971,2.18703818321228,2.18703031539917,2.18702149391174,2.18701195716858,2.18700504302979,2.1869945526123,2.18698668479919,2.18697810173035,2.1869695186615,2.18695974349976,2.18695116043091,2.18694257736206,2.18693494796753,2.18692421913147,2.18691658973694,2.18690705299377,2.18689942359924,2.18688988685608,2.18688035011292,2.18687272071838,2.18686318397522,2.18685460090637,2.18684601783752,2.18683743476868,2.18682885169983,2.18681931495667,2.18681073188782,2.18680238723755,2.1867938041687,2.18678426742554,2.18677568435669,2.18676662445068,2.18675875663757,2.18674850463867,2.18673992156982,2.18673253059387,2.18672323226929,2.18671369552612,2.18670439720154,2.18669676780701,2.18668842315674,2.18667817115784,2.1866717338562,2.18666219711304,2.18665289878845,2.18664360046387,2.18663620948792,2.18662691116333,2.18661856651306,2.18660926818848,2.18660187721252,2.18659067153931,2.18658328056335,2.18657493591309,2.18656587600708,2.1865565776825,2.18654727935791,2.18653988838196,2.18653154373169,2.18652153015137,2.1865131855011,2.18650412559509,2.18649578094482,2.18648648262024,2.18647742271423,2.18646907806396,2.18646192550659,2.18645095825195,2.18644285202026,2.18643450737,2.18642640113831,2.1864161491394,2.1864070892334,2.18639993667603,2.18639087677002,2.1863808631897,2.18637275695801,2.18636441230774,2.18635630607605,2.18634557723999,2.1863374710083,2.18632936477661,2.18632030487061,2.1863112449646,2.18630313873291,2.1862940788269,2.18628597259521,2.18627619743347,2.18626809120178,2.18625807762146,2.18625116348267,2.18624114990234,2.18623232841492,2.18622231483459,2.18621444702148,2.18620538711548,2.18619751930237,2.18618750572205,2.18617963790894,2.18617177009583,2.18616199493408,2.18615293502808,2.18614411354065,2.18613624572754,2.18612837791443,2.18611764907837,2.18610954284668,2.18610167503357,2.18609309196472,2.18608331680298,2.18607449531555,2.18606662750244,2.18605780601501,2.18604803085327,2.18603920936584,2.186030626297,2.18602275848389,2.18601298332214,2.1860044002533,2.18599653244019,2.18598771095276,2.18597817420959,2.18597030639648,2.18596053123474,2.18595290184021,2.18594336509705,2.18593454360962,2.18592691421509,2.18591713905334,2.1859085559845,2.18589997291565,2.18588948249817,2.18588161468506,2.18587327003479,2.18586444854736,2.1858549118042,2.18584632873535,2.18583869934082,2.18582916259766,2.18581962585449,2.18581199645996,2.18580341339111,2.18579483032227,2.18578457832336,2.18577694892883,2.18576836585999,2.18575978279114,2.18575024604797,2.18574190139771,2.18573331832886,2.18572592735291,2.18571448326111,2.18570709228516,2.18569755554199,2.18568825721741,2.18568062782288,2.18567132949829,2.18566203117371,2.18565440177917,2.18564510345459,2.18563747406006,2.18562722206116,2.18561887741089,2.18561053276062,2.18560218811035,2.18559288978577,2.1855845451355,2.18557620048523,2.18556761741638,2.18555760383606,2.18554925918579,2.18553996086121,2.18553066253662,2.18552327156067,2.18551421165466,2.18550491333008,2.18549656867981,2.1854875087738,2.18548011779785,2.18546915054321,2.18546175956726,2.18545341491699,2.18544435501099,2.1854350566864,2.1854259967804,2.18541860580444,2.18541049957275,2.18539953231812,2.18539214134216,2.18538212776184,2.18537402153015,2.18536591529846,2.18535661697388,2.18534755706787,2.18533945083618,2.18533039093018,2.18532228469849,2.18531227111816,2.18530416488647,2.18529605865479,2.18528699874878,2.18527793884277,2.18526887893677,2.18525886535645,2.18525195121765,2.18524289131165,2.18523502349854,2.18522500991821,2.18521595001221,2.18520784378052,2.18519902229309,2.18519020080566,2.18518209457397,2.18517136573792,2.18516325950623,2.1851544380188,2.18514657020569,2.18513751029968,2.18512868881226,2.18512058258057,2.18511176109314,2.1851019859314,2.18509411811829,2.18508410453796,2.18507742881775,2.18506669998169,2.18505883216858,2.18504977226257,2.18504118919373,2.18503308296204,2.18502521514893,2.18501472473145,2.18500685691833,2.18499827384949,2.18498945236206,2.18498039245605,2.18497180938721,2.18496227264404,2.1849536895752,2.18494558334351,2.18493700027466,2.18492722511292,2.18491864204407,2.18490982055664,2.18490219116211,2.18489265441895,2.18488383293152,2.18487405776978,2.18486642837524,2.1848578453064,2.18484926223755,2.18483972549438,2.18483114242554,2.18482255935669,2.18481302261353,2.18480539321899,2.18479657173157,2.1847870349884,2.18477940559387,2.18477010726929,2.18476223945618,2.18475198745728,2.18474435806274,2.18473482131958,2.18472528457642,2.18471789360046,2.18470859527588,2.18470001220703,2.18469142913818,2.18468284606934,2.18467450141907,2.1846649646759,2.18465662002563,2.18464708328247,2.18463778495789,2.18463039398193,2.1846227645874,2.18461155891418,2.18460416793823,2.18459391593933,2.18458557128906,2.18457818031311,2.18456864356995,2.18455934524536,2.18455100059509,2.18454265594482,2.18453526496887,2.18452501296997,2.1845166683197,2.18450736999512,2.18449807167053,2.18449068069458,2.18448162078857,2.18447232246399,2.18446397781372
2.17386960983276,2.17385935783386,2.17385077476501,2.17384243011475,2.1738338470459,2.17382645606995,2.17381715774536,2.1738076210022,2.17379832267761,2.17379093170166,2.17378234863281,2.17377400398254,2.17376470565796,2.17375636100769,2.17374706268311,2.17373943328857,2.17372941970825,2.1737220287323,2.17371344566345,2.17370343208313,2.17369508743286,2.17368674278259,2.17367839813232,2.17367100715637,2.17366075515747,2.1736524105072,2.17364239692688,2.17363500595093,2.17362666130066,2.17361664772034,2.17360830307007,2.17360019683838,2.17359089851379,2.17358374595642,2.1735737323761,2.17356538772583,2.17355632781982,2.17354798316956,2.17353987693787,2.17353177070618,2.17352247238159,2.17351341247559,2.17350435256958,2.17349720001221,2.17348718643188,2.17348003387451,2.17347073554993,2.17346096038818,2.17345261573792,2.1734447479248,2.1734356880188,2.17342662811279,2.17341756820679,2.1734094619751,2.17340135574341,2.17339253425598,2.17338418960571,2.17337441444397,2.17336559295654,2.17335844039917,2.17334866523743,2.17334151268005,2.17333149909973,2.1733226776123,2.17331457138062,2.17330574989319,2.1732976436615,2.17328786849976,2.17327904701233,2.17327189445496,2.17326211929321,2.1732542514801,2.17324447631836,2.17323660850525,2.17322754859924,2.1732189655304,2.17321014404297,2.17320203781128,2.17319226264954,2.173184633255,2.17317485809326,2.17316794395447,2.17315912246704,2.1731493473053,2.17314052581787,2.17313289642334,2.17312407493591,2.1731162071228,2.17310667037964,2.17309784889221,2.17308831214905,2.17308139801025,2.17307257652283,2.17306303977966,2.17305421829224,2.17304563522339,2.17303705215454,2.17303013801575,2.17301964759827,2.17301106452942,2.17300224304199,2.17299461364746,2.17298603057861,2.17297649383545,2.17296695709229,2.17296028137207,2.17295074462891,2.17294311523438,2.17293357849121,2.17292499542236,2.17291617393494,2.17290782928467,2.17289924621582,2.17288970947266,2.17288041114807,2.17287373542786,2.17286419868469,2.17285656929016,2.17284822463989,2.17283773422241,2.17282938957214,2.1728208065033,2.17281246185303,2.17280387878418,2.17279458045959,2.17278695106506,2.17277765274048,2.17276835441589,2.17275977134705,2.17275142669678,2.17274308204651,2.17273473739624,2.17272615432739,2.17271685600281,2.17270755767822,2.17270016670227,2.17269086837769,2.17268252372742,2.17267322540283,2.17266488075256,2.17265653610229,2.17264819145203,2.17263793945312,2.17263078689575,2.17262148857117,2.17261409759521,2.17260479927063,2.17259550094604,2.17258739471436,2.17257905006409,2.17256999015808,2.17256164550781,2.17255163192749,2.17254424095154,2.17253518104553,2.17252588272095,2.17251777648926,2.17250967025757,2.17250037193298,2.17249321937561,2.17248320579529,2.1724750995636,2.17246508598328,2.17245769500732,2.17244958877563,2.17243957519531,2.17243146896362,2.1724226474762,2.17241430282593,2.17240524291992,2.17239618301392,2.17238807678223,2.1723792552948,2.17237186431885,2.17236304283142,2.17235326766968,2.17234516143799,2.17233610153198,2.17232799530029,2.17231893539429,2.17230916023254,2.17230224609375,2.17229413986206,2.17228412628174,2.17227530479431,2.1722674369812,2.1722583770752,2.17224955558777,2.17224049568176,2.17223262786865,2.17222285270691,2.17221593856812,2.17220592498779,2.17219805717468,2.17218923568726,2.17218065261841,2.1721727848053,2.17216372489929,2.17215418815613,2.17214703559875,2.17213821411133,2.17212843894958,2.17211985588074,2.17211198806763,2.1721031665802,2.17209434509277,2.17208480834961,2.17207789421082,2.17206811904907,2.17205953598022,2.1720507144928,2.17204213142395,2.1720335483551,2.17202377319336,2.17201495170593,2.17200827598572,2.17199873924255,2.17199110984802,2.17198038101196,2.17197275161743,2.17196416854858,2.17195630073547,2.17194771766663,2.1719388961792,2.17192959785461,2.17192196846008,2.17191243171692,2.17190384864807,2.17189502716064,2.17188668251038,2.17187809944153,2.17186856269836,2.17185997962952,2.1718533039093,2.1718430519104,2.17183446884155,2.17182493209839,2.17181754112244,2.17180895805359,2.17179942131042,2.17179083824158,2.17178344726562,2.17177414894104,2.17176556587219,2.17175602912903,2.17174863815308,2.17174005508423,2.17173099517822,2.17172169685364,2.17171406745911,2.17170476913452,2.17169642448425,2.17168688774109,2.17167949676514,2.17167019844055,2.17166090011597,2.17165231704712,2.17164421081543,2.17163586616516,2.17162656784058,2.17161750793457,2.17161083221436,2.17160081863403,2.17159247398376,2.1715841293335,2.17157578468323,2.17156648635864,2.17155742645264,2.17154812812805,2.17154169082642,2.17153167724609,2.17152333259583,2.1715133190155,2.17150616645813,2.17149782180786,2.17148780822754,2.17147946357727,2.17147135734558,2.17146301269531,2.17145395278931,2.1714448928833,2.17143774032593,2.17142844200134,2.17141938209534,2.17141056060791,2.17140221595764,2.17139410972595,2.17138504981995,2.1713752746582,2.17136812210083,2.17135906219482,2.17135000228882,2.17134165763855,2.17133378982544,2.17132472991943,2.17131495475769,2.171306848526,2.17129969596863,2.17128992080688,2.1712806224823,2.17127180099487,2.1712646484375,2.17125582695007,2.17124605178833,2.17123794555664,2.17123079299927,2.17122101783752,2.1712121963501,2.17120242118835,2.17119550704956,2.17118644714355,2.17117762565613,2.17116856575012,2.17116093635559
2.1606924533844,2.16068506240845,2.16067695617676,2.16066598892212,2.16065979003906,2.16064882278442,2.16064167022705,2.16063356399536,2.16062450408936,2.16061663627625,2.16060829162598,2.16059947013855,2.16059136390686,2.1605806350708,2.16057252883911,2.16056537628174,2.16055536270142,2.16054844856262,2.1605384349823,2.16053056716919,2.1605224609375,2.16051268577576,2.16050553321838,2.16049575805664,2.16048765182495,2.16047978401184,2.16047096252441,2.16046285629272,2.1604540348053,2.16044425964355,2.16043734550476,2.16042733192444,2.16041851043701,2.1604106426239,2.16040182113647,2.16039395332336,2.16038513183594,2.16037559509277,2.16036939620972,2.16035866737366,2.16035079956055,2.16034126281738,2.16033339500427,2.16032552719116,2.16031670570374,2.1603090763092,2.16029930114746,2.16029047966003,2.16028189659119,2.16027307510376,2.16026544570923,2.16025757789612,2.16024804115295,2.16024017333984,2.160231590271,2.16022181510925,2.16021418571472,2.16020464897156,2.16019701957703,2.1601881980896,2.16017985343933,2.1601710319519,2.16016340255737,2.16015386581421,2.16014432907104,2.16013669967651,2.16012907028198,2.16011953353882,2.16011190414429,2.16010236740112,2.16009473800659,2.16008520126343,2.16007661819458,2.16006827354431,2.16006064414978,2.1600513458252,2.16004371643066,2.16003322601318,2.16002678871155,2.16001725196838,2.16000771522522,2.16000032424927,2.15999102592468,2.15998339653015,2.15997505187988,2.1599645614624,2.15995812416077,2.15994787216187,2.15994024276733,2.15993189811707,2.1599235534668,2.15991520881653,2.159907579422,2.15989637374878,2.15988898277283,2.15987968444824,2.15987229347229,2.15986394882202,2.15985465049744,2.15984535217285,2.1598379611969,2.15982866287231,2.15982055664062,2.15981125831604,2.15980386734009,2.15979480743408,2.15978646278381,2.15977716445923,2.15976810455322,2.15976071357727,2.159752368927,2.159743309021,2.15973591804504,2.15972495079041,2.15971875190735,2.15970945358276,2.15970039367676,2.15969228744507,2.15968322753906,2.15967583656311,2.15966749191284,2.1596577167511,2.15964937210083,2.15964031219482,2.15963220596313,2.15962409973145,2.15961503982544,2.15960597991943,2.15959882736206,2.15958881378174,2.15958094596863,2.15957188606262,2.15956473350525,2.15955662727356,2.15954756736755,2.15953755378723,2.1595287322998,2.15952157974243,2.15951347351074,2.15950465202332,2.15949654579163,2.15948581695557,2.15947794914246,2.15946984291077,2.15946102142334,2.15945291519165,2.15944409370422,2.1594352722168,2.15942811965942,2.15941834449768,2.15941023826599,2.15940237045288,2.15939354896545,2.15938568115234,2.1593759059906,2.15936803817749,2.15935921669006,2.15935039520264,2.15934252738953,2.15933275222778,2.15932488441467,2.15931701660156,2.15930724143982,2.15930032730103,2.15928983688354,2.15928196907043,2.15927410125732,2.1592652797699,2.15925574302673,2.1592481136322,2.15923929214478,2.15923142433167,2.1592218875885,2.15921401977539,2.15920639038086,2.15919756889343,2.15918803215027,2.15917944908142,2.15917086601257,2.15916299819946,2.15915441513062,2.15914678573608,2.15913605690002,2.15912842750549,2.15911984443665,2.1591112613678,2.15910363197327,2.15909433364868,2.15908479690552,2.15907692909241,2.15906858444214,2.15905976295471,2.15905141830444,2.15904378890991,2.15903425216675,2.15902495384216,2.15901732444763,2.1590096950531,2.15900039672852,2.15899276733398,2.1589822769165,2.15897393226624,2.1589663028717,2.15895771980286,2.15894937515259,2.15894103050232,2.15893149375916,2.15892314910889,2.15891480445862,2.15890645980835,2.1588978767395,2.15888953208923,2.15888023376465,2.15887188911438,2.15886330604553,2.15885591506958,2.15884685516357,2.15883922576904,2.15882802009583,2.15882062911987,2.1588122844696,2.15880393981934,2.15879559516907,2.15878748893738,2.15877723693848,2.15876984596252,2.15876078605652,2.15875339508057,2.15874218940735,2.15873599052429,2.15872669219971,2.1587176322937,2.15871024131775,2.15870094299316,2.15869188308716,2.1586856842041,2.15867447853088,2.15866708755493,2.15865898132324,2.15864992141724,2.15864086151123,2.15863180160522,2.15862441062927,2.15861630439758,2.15860724449158,2.15859937667847,2.15858912467957,2.15858101844788,2.1585738658905,2.1585648059845,2.15855669975281,2.1585476398468,2.1585385799408,2.15853071212769,2.15852165222168,2.15851354598999,2.15850448608398,2.15849661827087,2.15848755836487,2.15847849845886,2.15847039222717,2.15846252441406,2.15845274925232,2.15844464302063,2.1584358215332,2.15842771530151,2.1584198474884,2.15841102600098,2.15840172767639,2.15839314460754,2.15838503837585,2.15837717056274,2.15836834907532,2.15836024284363,2.15835070610046,2.15834259986877,2.15833473205566,2.15832591056824,2.15831613540649,2.15830826759338,2.15829968452454,2.15829157829285,2.158282995224,2.15827512741089,2.15826535224915,2.15825653076172,2.15824866294861,2.15823984146118,2.15823030471802,2.15822434425354,2.15821361541748,2.15820598602295,2.1581974029541,2.15818953514099,2.15817975997925,2.1581711769104,2.15816354751587,2.15815567970276,2.15814614295959,2.15813827514648,2.15812802314758,2.15812015533447,2.15811228752136,2.15810394287109,2.15809416770935,2.1580855846405,2.15807795524597,2.15806937217712,2.15806078910828,2.15805315971375,2.15804290771484,2.15803503990173,2.1580274105072,2.15801811218262
2.1476776599884,2.14766883850098,2.14766097068787,2.1476514339447,2.14764428138733,2.14763474464417,2.14762759208679,2.14761877059937,2.1476092338562,2.14760136604309,2.14759159088135,2.14758467674255,2.14757609367371,2.14756631851196,2.14755868911743,2.14754891395569,2.14754199981689,2.14753341674805,2.1475248336792,2.14751601219177,2.14750838279724,2.14749956130981,2.14749193191528,2.14748215675354,2.14747452735901,2.14746594429016,2.14745831489563,2.1474494934082,2.14744091033936,2.14743232727051,2.14742374420166,2.14741516113281,2.14740657806396,2.1473970413208,2.14738941192627,2.14738082885742,2.14737224578857,2.14736366271973,2.14735531806946,2.14734673500061,2.1473400592804,2.14732956886292,2.1473228931427,2.14731359481812,2.14730596542358,2.14729642868042,2.14728903770447,2.1472795009613,2.14727115631104,2.14726281166077,2.14725422859192,2.14724588394165,2.1472373008728,2.14722895622253,2.14722061157227,2.14721202850342,2.14720368385315,2.14719438552856,2.14718770980835,2.14717769622803,2.1471700668335,2.14716076850891,2.14715337753296,2.14714503288269,2.14713668823242,2.14712834358215,2.14711904525757,2.1471107006073,2.14710259437561,2.14709234237671,2.14708495140076,2.14707660675049,2.1470685005188,2.14705991744995,2.14705181121826,2.14704251289368,2.1470353603363,2.14702606201172,2.14701890945435,2.14700889587402,2.14700150489807,2.1469931602478,2.14698314666748,2.14697599411011,2.14696764945984,2.14695763587952,2.14695048332214,2.14694046974182,2.14693307876587,2.14692497253418,2.14691686630249,2.14690780639648,2.14689970016479,2.14689064025879,2.14688348770142,2.14687442779541,2.14686703681946,2.14685726165771,2.14684820175171,2.14684104919434,2.14683103561401,2.14682292938232,2.14681506156921,2.14680600166321,2.14679884910583,2.14678907394409,2.14678192138672,2.14677286148071,2.1467649936676,2.1467559337616,2.14674806594849,2.14673900604248,2.14673018455505,2.14672231674194,2.14671325683594,2.14670443534851,2.1466965675354,2.14668846130371,2.14667963981628,2.14667081832886,2.14666295051575,2.14665412902832,2.14664697647095,2.14663743972778,2.14663028717041,2.14662146568298,2.14661192893982,2.14660286903381,2.14659523963928,2.14658617973328,2.14657950401306,2.14656972885132,2.14656186103821,2.14655232429504,2.14654541015625,2.14653658866882,2.14652872085571,2.14652013778687,2.14651036262512,2.14650273323059,2.14649391174316,2.146484375,2.14647746086121,2.14646792411804,2.14646029472351,2.14645147323608,2.14644384384155,2.14643526077271,2.14642763137817,2.14641785621643,2.14640927314758,2.14640164375305,2.14639210700989,2.14638328552246,2.14637589454651,2.14636707305908,2.14635872840881,2.14635014533997,2.14634323120117,2.14633297920227,2.14632630348206,2.14631676673889,2.14630722999573,2.14630055427551,2.14629101753235,2.14628267288208,2.14627504348755,2.14626550674438,2.14625811576843,2.14624881744385,2.14624118804932,2.14623260498047,2.1462242603302,2.14621567726135,2.14620637893677,2.14619708061218,2.14619064331055,2.14618039131165,2.14617371559143,2.14616346359253,2.14615702629089,2.14614748954773,2.14614009857178,2.14613080024719,2.14612150192261,2.14611411094666,2.14610576629639,2.1460964679718,2.14608907699585,2.14607977867126,2.14607238769531,2.14606308937073,2.14605474472046,2.14604663848877,2.14603900909424,2.14602994918823,2.14602088928223,2.14601159095764,2.14600419998169,2.14599585533142,2.14598774909973,2.14597845077515,2.14597034454346,2.14596199989319,2.14595484733582,2.14594483375549,2.14593648910522,2.14592742919922,2.14591932296753,2.14591097831726,2.14590287208557,2.14589381217957,2.14588665962219,2.14587759971619,2.14587020874023,2.14586043357849,2.14585208892822,2.14584302902222,2.14583492279053,2.14582681655884,2.14581799507141,2.14580988883972,2.14580273628235,2.14579272270203,2.14578557014465,2.14577579498291,2.14576768875122,2.14575862884521,2.1457507610321,2.1457417011261,2.14573454856873,2.1457257270813,2.14571762084961,2.14570879936218,2.14569973945618,2.14569282531738,2.14568281173706,2.14567399024963,2.14566612243652,2.14565825462341,2.14565014839172,2.1456413269043,2.14563345909119,2.14562463760376,2.14561581611633,2.14560675621033,2.14559888839722,2.14559006690979,2.14558243751526,2.14557337760925,2.14556646347046,2.14555692672729,2.14554810523987,2.14554119110107,2.14553141593933,2.1455225944519,2.14551496505737,2.14550614356995,2.14549827575684,2.14548873901367,2.14548182487488,2.14547228813171,2.14546346664429,2.14545464515686,2.14544701576233,2.14543843269348,2.14543056488037,2.14542174339294,2.14541411399841,2.14540457725525,2.1453959941864,2.14538908004761,2.14537954330444,2.1453709602356,2.14536261558533,2.1453537940979,2.14534711837769,2.14533758163452,2.14532899856567,2.14532017707825,2.1453115940094,2.14530324935913,2.1452956199646,2.14528703689575,2.1452784538269,2.14526987075806,2.1452624797821,2.14525294303894,2.14524435997009,2.14523482322693,2.14522743225098,2.14521908760071,2.1452112197876,2.14520287513733,2.14519548416138,2.14518594741821,2.14517760276794,2.14516711235046,2.14516067504883,2.14515233039856,2.14514398574829,2.14513516426086,2.14512705802917,2.14511847496033,2.14511013031006,2.14509987831116,2.14509344100952,2.14508318901062,2.14507675170898,2.1450674533844,2.14506006240845,2.14505076408386,2.14504241943359,2.14503312110901
2.13481569290161,2.1348078250885,2.13480043411255,2.13479065895081,2.13478493690491,2.13477444648743,2.13476777076721,2.13475728034973,2.13475060462952,2.13474082946777,2.13473343849182,2.13472557067871,2.13471627235413,2.13470864295959,2.13470005989075,2.1346914768219,2.13468313217163,2.1346755027771,2.13466596603394,2.1346583366394,2.13464903831482,2.13464140892029,2.13463306427002,2.13462448120117,2.1346161365509,2.13460755348206,2.13459920883179,2.13459157943726,2.13458228111267,2.1345739364624,2.13456559181213,2.13455700874329,2.13454961776733,2.13454031944275,2.13453388214111,2.13452339172363,2.134516954422,2.13450765609741,2.13449931144714,2.13449001312256,2.13448357582092,2.13447332382202,2.13446688652039,2.13445663452148,2.13444948196411,2.13444018363953,2.13443279266357,2.13442444801331,2.13441610336304,2.13440799713135,2.13439965248108,2.13439059257507,2.13438296318054,2.13437390327454,2.13436555862427,2.13435745239258,2.13434934616089,2.13434100151062,2.13433289527893,2.13432359695435,2.13431549072266,2.13430738449097,2.1342990398407,2.13429093360901,2.134281873703,2.13427376747131,2.13426470756531,2.13425660133362,2.13424921035767,2.13424015045166,2.13423204421997,2.13422322273254,2.13421487808228,2.13420677185059,2.13419795036316,2.13418984413147,2.13418078422546,2.13417267799377,2.1341655254364,2.13415670394897,2.13414859771729,2.1341404914856,2.13413166999817,2.13412356376648,2.13411450386047,2.13410663604736,2.13409852981567,2.13408970832825,2.13408160209656,2.13407278060913,2.13406586647034,2.13405680656433,2.13404893875122,2.13403916358948,2.13403224945068,2.13402247428894,2.13401627540588,2.13400554656982,2.13399934768677,2.1339898109436,2.13398194313049,2.13397288322449,2.13396525382996,2.13395547866821,2.13394951820374,2.13393878936768,2.13393259048462,2.13392210006714,2.13391542434692,2.13390564918518,2.13389873504639,2.13388895988464,2.13388133049011,2.13387250900269,2.13386559486389,2.13385510444641,2.13384914398193,2.13383865356445,2.13383173942566,2.13382196426392,2.13381457328796,2.13380575180054,2.13379883766174,2.13378858566284,2.13378167152405,2.13377213478088,2.13376522064209,2.13375568389893,2.13374805450439,2.13373851776123,2.1337308883667,2.13372230529785,2.13371539115906,2.13370513916016,2.13369846343994,2.13368797302246,2.13368129730225,2.13367176055908,2.13366436958313,2.1336555480957,2.13364911079407,2.13363862037659,2.13363194465637,2.13362169265747,2.13361501693726,2.13360548019409,2.13359808921814,2.13358855247498,2.13358116149902,2.13357162475586,2.13356518745422,2.13355493545532,2.13354825973511,2.13353800773621,2.13353157043457,2.13352203369141,2.13351464271545,2.13350534439087,2.13349771499634,2.13348841667175,2.13348197937012,2.13347172737122,2.13346529006958,2.13345575332642,2.13344788551331,2.13343834877014,2.13343000411987,2.1334216594696,2.13341331481934,2.13340497016907,2.1333966255188,2.13338851928711,2.13338017463684,2.13337182998657,2.13336372375488,2.13335537910461,2.13334631919861,2.13333797454834,2.13333058357239,2.13332152366638,2.13331341743469,2.13330602645874,2.13329696655273,2.13328862190247,2.13327956199646,2.13327240943909,2.13326406478882,2.13325500488281,2.13324689865112,2.13323855400085,2.13323044776917,2.13322234153748,2.13321352005005,2.13320517539978,2.13319706916809,2.1331889629364,2.13318085670471,2.13317179679871,2.13316369056702,2.13315486907959,2.1331467628479,2.13313937187195,2.13313055038452,2.13312268257141,2.13311433792114,2.13310551643372,2.13309741020203,2.1330885887146,2.13308048248291,2.13307237625122,2.13306355476379,2.13305568695068,2.13304662704468,2.13303875923157,2.13303160667419,2.13302087783813,2.13301491737366,2.13300395011902,2.13299798965454,2.1329882144928,2.13298034667969,2.13297152519226,2.13296461105347,2.13295459747314,2.13294768333435,2.13293790817261,2.1329300403595,2.13292217254639,2.13291335105896,2.13290452957153,2.13289594650269,2.132887840271,2.13288021087646,2.13287138938904,2.13286352157593,2.1328547000885,2.13284707069397,2.13283920288086,2.1328296661377,2.13282179832458,2.13281321525574,2.13280534744263,2.13279747962952,2.13278818130493,2.13278031349182,2.13277244567871,2.13276386260986,2.13275623321533,2.13274645805359,2.13273787498474,2.13273119926453,2.13272070884705,2.13271379470825,2.13270425796509,2.13269758224487,2.13268804550171,2.13268041610718,2.13267087936401,2.13266229629517,2.13265466690063,2.1326470375061,2.13263750076294,2.13262987136841,2.13262224197388,2.13261294364929,2.13260531425476,2.1325957775116,2.13258838653564,2.13258075714111,2.13257145881653,2.13256359100342,2.13255453109741,2.13254690170288,2.13253951072693,2.13252997398376,2.13252234458923,2.13251304626465,2.13250374794006,2.13249707221985,2.13248682022095,2.13248109817505,2.13247013092041,2.13246440887451,2.13245511054993,2.13244581222534,2.13243842124939,2.13243007659912,2.13242077827454,2.13241338729858,2.132404088974,2.13239669799805,2.13238835334778,2.13238000869751,2.13237190246582,2.13236331939697,2.1323549747467,2.13234686851501,2.13233852386475,2.13233017921448,2.13232016563416,2.13231372833252,2.13230466842651,2.13229727745056,2.13228797912598,2.1322808265686,2.13227081298828,2.13226342201233,2.13225436210632,2.13224601745605,2.13223886489868,2.13222980499268,2.13222169876099,2.13221263885498,2.13220524787903
2.12210917472839,2.12210059165955,2.1220920085907,2.12208533287048,2.12207508087158,2.12206840515137,2.12205910682678,2.12205076217651,2.1220440864563,2.12203454971313,2.12202620506287,2.12201952934265,2.12200927734375,2.1220018863678,2.12199330329895,2.12198495864868,2.12197637557983,2.12196826934814,2.12196063995361,2.12195324897766,2.12194395065308,2.12193655967712,2.12192630767822,2.12191987037659,2.121910572052,2.12190222740173,2.12189483642578,2.12188649177551,2.12187814712524,2.12187075614929,2.12186074256897,2.12185335159302,2.12184500694275,2.12183666229248,2.12182927131653,2.12181925773621,2.12181186676025,2.12180471420288,2.1217954158783,2.12178802490234,2.12177801132202,2.12177085876465,2.12176156044006,2.12175345420837,2.121746301651,2.12173700332642,2.12172985076904,2.12172245979309,2.12171244621277,2.1217052936554,2.12169623374939,2.1216881275177,2.12167906761169,2.12167096138,2.12166357040405,2.12165641784668,2.12164640426636,2.12163925170898,2.12162947654724,2.12162232398987,2.1216139793396,2.12160515785217,2.12159705162048,2.12158823013306,2.12158107757568,2.12157392501831,2.12156391143799,2.12155699729919,2.12154698371887,2.1215398311615,2.12153100967407,2.12152290344238,2.12151598930359,2.12150692939758,2.12149810791016,2.12149095535278,2.12148141860962,2.12147426605225,2.12146544456482,2.12145733833313,2.1214485168457,2.12144064903259,2.12143182754517,2.12142395973206,2.12141609191895,2.12140893936157,2.12139940261841,2.1213915348053,2.12138438224792,2.12137484550476,2.12136769294739,2.12135815620422,2.12135028839111,2.12134146690369,2.12133359909058,2.12132596969604,2.12131714820862,2.12130928039551,2.12130165100098,2.12129187583923,2.12128496170044,2.12127614021301,2.12126755714417,2.12125897407532,2.12125110626221,2.12124252319336,2.12123465538025,2.12122702598572,2.12121939659119,2.12120962142944,2.12120199203491,2.12119340896606,2.12118577957153,2.12117719650269,2.12116932868958,2.12115979194641,2.12115216255188,2.12114453315735,2.1211359500885,2.12112832069397,2.12111973762512,2.12111115455627,2.12110280990601,2.12109422683716,2.12108731269836,2.12107706069946,2.12107038497925,2.12106013298035,2.12105345726013,2.1210458278656,2.12103652954102,2.12102890014648,2.12102055549622,2.12101197242737,2.12100434303284,2.12099504470825,2.12098741531372,2.12097907066345,2.12097072601318,2.12096214294434,2.12095379829407,2.12094640731812,2.12093782424927,2.120929479599,2.12092208862305,2.12091279029846,2.12090539932251,2.12089681625366,2.12088847160339,2.1208803653717,2.12087202072144,2.12086272239685,2.1208553314209,2.12084794044495,2.12083864212036,2.12083125114441,2.12082314491272,2.12081456184387,2.12080645561218,2.12079787254333,2.12079071998596,2.12078070640564,2.12077331542969,2.1207640171051,2.12075686454773,2.12074756622314,2.12073945999146,2.1207320690155,2.1207230091095,2.12071585655212,2.12070846557617,2.12069845199585,2.1206910610199,2.12068128585815,2.1206738948822,2.12066578865051,2.12065744400024,2.12064838409424,2.12064123153687,2.12063217163086,2.12062430381775,2.12061595916748,2.12060785293579,2.12060070037842,2.12059259414673,2.12058353424072,2.12057566642761,2.12056660652161,2.12055945396423,2.12054967880249,2.12054228782654,2.12053251266479,2.12052536010742,2.12051749229431,2.12050843238831,2.12050151824951,2.12049245834351,2.1204845905304,2.12047743797302,2.12046766281128,2.12046051025391,2.12045168876648,2.12044358253479,2.12043476104736,2.12042689323425,2.12041807174683,2.12041091918945,2.12040114402771,2.12039422988892,2.12038445472717,2.12037754058838,2.12036967277527,2.12035989761353,2.12035298347473,2.12034511566162,2.12033629417419,2.12032842636108,2.12031960487366,2.12031173706055,2.12030291557312,2.12029504776001,2.12028646469116,2.12027859687805,2.12026977539062,2.12026214599609,2.12025237083435,2.12024545669556,2.12023711204529,2.12022829055786,2.12022113800049,2.12021279335022,2.12020421028137,2.12019634246826,2.12018775939941,2.12018084526062,2.12017035484314,2.12016344070435,2.1201548576355,2.12014627456665,2.1201376914978,2.12013006210327,2.12012147903442,2.12011361122131,2.12010431289673,2.12009739875793,2.12008905410767,2.12008023262024,2.12007284164429,2.12006521224976,2.12005662918091,2.12004804611206,2.12003946304321,2.12003207206726,2.1200225353241,2.12001514434814,2.12000560760498,2.11999893188477,2.11998963356018,2.11998200416565,2.11997246742249,2.11996603012085,2.11995649337769,2.11994910240173,2.11994075775146,2.11993217468262,2.11992478370667,2.11991548538208,2.11990785598755,2.11989951133728,2.11989092826843,2.11988377571106,2.1198742389679,2.11986684799194,2.11985754966736,2.11985015869141,2.11984181404114,2.11983346939087,2.1198251247406,2.11981773376465,2.11980843544006,2.11980104446411,2.11979079246521,2.11978435516357,2.11977529525757,2.11976718902588,2.11975955963135,2.11975049972534,2.11974310874939,2.11973476409912,2.11972665786743,2.11971926689148,2.11970925331116,2.1197030544281,2.11969375610352,2.11968541145325,2.11967730522156,2.11966919898987,2.11966013908386,2.11965274810791,2.1196436882019,2.11963653564453,2.11962747573853,2.11961936950684,2.11961102485657,2.11960291862488,2.11959385871887,2.1195867061615,2.11957764625549,2.11957049369812,2.1195604801178,2.11955332756042,2.11954617500305,2.11953639984131,2.11952900886536
