2.43061804771423,2.43061280250549,2.43060803413391,2.43060111999512,2.43059706687927,2.43059039115906,2.4305853843689,2.43058133125305,2.43057465553284,2.43056964874268,2.43056464195251,2.43055891990662,2.43055295944214,2.43054890632629,2.43054223060608,2.43053722381592,2.43053150177002,2.43052649497986,2.4305214881897,2.4305157661438,2.43051099777222,2.43050408363342,2.43050026893616,2.43049359321594,2.43048858642578,2.43048286437988,2.43047785758972,2.43047308921814,2.43046736717224,2.43046259880066,2.43045568466187,2.4304518699646,2.43044519424438,2.4304404258728,2.43043446540833,2.43042969703674,2.43042325973511,2.43041920661926,2.43041348457336,2.43040871620178,2.43040299415588,2.43039631843567,2.4303925037384,2.43038582801819,2.43038105964661,2.43037533760071,2.43037056922913,2.43036389350891,2.43036007881165,2.43035459518433,2.43034791946411,2.43034410476685,2.43033742904663,2.43033289909363,2.43032717704773,2.43032240867615,2.43031573295593,2.43031120300293,2.43030643463135,2.43029975891113,2.43029594421387,2.43028950691223,2.43028402328491,2.43027830123901,2.43027353286743,2.4302670955658,2.43026328086853,2.43025779724121,2.430251121521,2.43024754524231,2.43024110794067,2.43023538589478,2.43022990226746,2.43022513389587,2.43021965026855,2.43021416664124,2.43020939826965,2.43020296096802,2.43019843101501,2.43019199371338,2.43018746376038,2.43018174171448,2.43017625808716,2.43017268180847,2.43016624450684,2.43016076087952,2.4301552772522,2.43015074729919,2.43014430999756,2.43013954162598,2.43013310432434,2.43012881278992,2.43012428283691,2.43011784553528,2.43011236190796,2.43010687828064,2.43010234832764,2.430095911026,2.430091381073,2.43008494377136,2.43007969856262,2.43007612228394,2.4300696849823,2.43006420135498,2.43005895614624,2.43005347251892,2.43004703521729,2.4300434589386,2.43003630638123,2.43003177642822,2.4300274848938,2.43002104759216,2.43001580238342,2.4300103187561,2.43000507354736,2.42999863624573,2.42999505996704,2.42998790740967,2.42998361587524,2.42997813224792,2.42997288703918,2.42996764183044,2.42996215820312,2.42995691299438,2.42995071411133,2.42994618415833,2.42993998527527,2.42993474006653,2.42992949485779,2.42992424964905,2.42991876602173,2.42991352081299,2.42990827560425,2.42990303039551,2.42989778518677,2.42989158630371,2.42988729476929,2.42988085746765,2.42987585067749,2.42987060546875,2.42986536026001,2.42985916137695,2.42985486984253,2.42984867095947,2.42984342575073,2.42983913421631,2.42983293533325,2.42982792854309,2.42982268333435,2.42981743812561,2.42981028556824,2.42980694770813,2.42980003356934,2.4297947883606,2.42978954315186,2.42978453636169,2.42977833747864,2.42977404594421,2.42976808547974,2.42976212501526,2.42975878715515,2.42975163459778,2.42974662780762,2.42974138259888,2.42973637580872,2.42973017692566,2.42972588539124,2.42971897125244,2.42971396446228,2.42970871925354,2.42970371246338,2.42969679832458,2.42969274520874,2.42968773841858,2.42968249320984,2.4296772480011,2.42967128753662,2.42966723442078,2.42966032028198,2.42965531349182,2.42965030670166,2.4296452999115,2.42963838577271,2.42963409423828,2.42962908744812,2.42962241172791,2.42961812019348,2.429612159729,2.42960715293884,2.42960143089294,2.42959642410278,2.42959046363831,2.42958617210388,2.42958116531372,2.42957448959351,2.42957043647766,2.42956352233887,2.42955875396729,2.42955374717712,2.42954874038696,2.42954182624817,2.42953777313232,2.42953109741211,2.42952609062195,2.4295220375061,2.42951536178589,2.42951059341431,2.42950558662415,2.42949962615967,2.42949390411377,2.42948985099792,2.42948317527771,2.42947816848755,2.42947244644165,2.42946743965149,2.42946267127991,2.42945671081543,2.42945194244385,2.42944598197937,2.42944121360779,2.42943453788757,2.42943072319031,2.42942476272583,2.42941927909851,2.42941522598267,2.42940855026245,2.42940378189087,2.42939782142639,2.42939305305481,2.42938637733459,2.42938256263733,2.42937588691711,2.42937111854553,2.42936539649963,2.42936062812805,2.42935585975647,2.42935013771057,2.42934536933899,2.42933869361877,2.42933464050293,2.42932820320129,2.4293224811554,2.42931771278381,2.42931199073792,2.42930626869202,2.42930173873901,2.42929697036743,2.42929029464722,2.42928457260132,2.42928004264832,2.4292733669281,2.42926955223083,2.4292631149292,2.4292573928833,2.42925262451172,2.4292471408844,2.42924046516418,2.42923665046692,2.42923021316528,2.42922568321228,2.42921996116638,2.42921447753906,2.42920804023743,2.42920422554016,2.42919754981995,2.42919397354126,2.42918848991394,2.4291820526123,2.42917823791504,2.42917156219482,2.42916631698608,2.4291615486145,2.42915606498718,2.42914962768555,2.42914581298828,2.42913937568665,2.42913389205933,2.42913031578064,2.429123878479,2.42911839485168,2.42911291122437,2.42910838127136,2.42910170555115,2.42909741401672,2.42909097671509,2.42908620834351,2.42908072471619,2.42907547950745,2.42906999588013,2.42906546592712,2.4290599822998,2.42905354499817,2.42904901504517,2.42904281616211,2.42903828620911,2.42903280258179,2.42902731895447,2.42902207374573,0,0,0,0,0,0,0,0,0,0,0,0,0,0,0,0,0,0,0,0,0,0,0,0,0,0,0,0,0,0
2.41416049003601,2.41415452957153,2.41414856910706,2.41414523124695,2.41413927078247,2.41413331031799,2.41412925720215,2.41412234306335,2.41411733627319,2.41411232948303,2.41410636901855,2.41410136222839,2.41409730911255,2.41409134864807,2.41408610343933,2.41408133506775,2.41407537460327,2.41407036781311,2.41406440734863,2.41405963897705,2.41405463218689,2.41404867172241,2.41404271125793,2.41403889656067,2.41403293609619,2.41402697563171,2.41402387619019,2.41401720046997,2.41401124000549,2.41400623321533,2.41400146484375,2.41399455070496,2.41399073600769,2.41398477554321,2.41397905349731,2.41397404670715,2.41396927833557,2.41396331787109,2.41395831108093,2.41395354270935,2.41394782066345,2.41394281387329,2.41393709182739,2.41393232345581,2.41392731666565,2.41392159461975,2.41391682624817,2.41391181945801,2.41390514373779,2.41389942169189,2.41389560699463,2.41388893127441,2.41388392448425,2.41387915611267,2.41387343406677,2.41386771202087,2.41386389732361,2.41385722160339,2.41385245323181,2.41384768486023,2.41384196281433,2.41383695602417,2.41383051872253,2.41382575035095,2.41382098197937,2.41381525993347,2.41380953788757,2.41380572319031,2.41380000114441,2.41379356384277,2.41378974914551,2.41378307342529,2.41377830505371,2.41377353668213,2.41376709938049,2.41376161575317,2.41375756263733,2.41375207901001,2.41374540328979,2.41374182701111,2.41373610496521,2.41372966766357,2.41372489929199,2.41372036933899,2.41371464729309,2.41370987892151,2.41370344161987,2.41369891166687,2.41369414329529,2.41368770599365,2.41368293762207,2.41367745399475,2.41367197036743,2.41366648674011,2.41366171836853,2.41365528106689,2.41365075111389,2.41364598274231,2.41363954544067,2.41363501548767,2.41363048553467,2.41362404823303,2.41361927986145,2.41361474990845,2.41360831260681,2.41360378265381,2.41359829902649,2.41359186172485,2.41358804702759,2.41358184814453,2.41357636451721,2.41357183456421,2.41356635093689,2.41356086730957,2.41355538368225,2.41354990005493,2.41354537010193,2.41354012489319,2.41353464126587,2.41352915763855,2.41352462768555,2.41351842880249,2.41351294517517,2.41350936889648,2.41350197792053,2.41349673271179,2.41349220275879,2.41348600387573,2.41348052024841,2.41347694396973,2.41347074508667,2.41346430778503,2.41346073150635,2.41345548629761,2.41344928741455,2.41344380378723,2.41343951225281,2.41343212127686,2.41342854499817,2.41342353820801,2.41341614723206,2.41341280937195,2.41340732574463,2.41340112686157,2.41339588165283,2.41339135169983,2.41338610649109,2.41338086128235,2.41337466239929,2.41337108612061,2.41336488723755,2.41335892677307,2.41335535049438,2.41334819793701,2.41334390640259,2.41333842277527,2.41333246231079,2.41332626342773,2.41332268714905,2.41331672668457,2.41331148147583,2.41330718994141,2.41330099105835,2.41329574584961,2.41329050064087,2.41328620910645,2.41327834129333,2.41327476501465,2.41326880455017,2.41326260566711,2.41325831413269,2.41325306892395,2.41324710845947,2.41324281692505,2.41323757171631,2.41323161125183,2.41322731971741,2.41322135925293,2.41321611404419,2.41320991516113,2.41320586204529,2.41320061683655,2.41319465637207,2.41318964958191,2.41318440437317,2.41317915916443,2.41317319869995,2.41316819190979,2.41316390037537,2.41315770149231,2.41315269470215,2.41314768791199,2.41314172744751,2.41313743591309,2.41313242912292,2.41312551498413,2.41312146186829,2.41311526298523,2.41310954093933,2.41310429573059,2.41310024261475,2.41309428215027,2.41308903694153,2.41308426856995,2.41307830810547,2.41307330131531,2.41306710243225,2.41306328773499,2.41305708885193,2.41305208206177,2.41304636001587,2.41304135322571,2.41303634643555,2.41303038597107,2.41302537918091,2.41301941871643,2.41301536560059,2.41301035881042,2.41300463676453,2.41299772262573,2.4129946231842,2.41298699378967,2.41298294067383,2.41297793388367,2.41297221183777,2.41296720504761,2.41296219825745,2.41295623779297,2.41295075416565,2.4129467010498,2.41293978691101,2.41293478012085,2.41293001174927,2.41292428970337,2.41291928291321,2.41291451454163,2.41290855407715,2.41290378570557,2.41289877891541,2.41289305686951,2.41288805007935,2.41288232803345,2.41287755966187,2.41287279129028,2.41286611557007,2.4128623008728,2.41285538673401,2.41285061836243,2.41284489631653,2.41284012794495,2.41283440589905,2.41282963752747,2.4128246307373,2.41281890869141,2.41281414031982,2.41280746459961,2.41280269622803,2.41279697418213,2.41279220581055,2.41278648376465,2.41278195381165,2.41277694702148,2.41277050971985,2.41276478767395,2.41276097297668,2.41275525093079,2.41274952888489,2.4127459526062,2.41273832321167,2.41273355484009,2.41272878646851,2.41272330284119,2.41271662712097,2.41271376609802,2.41270732879639,2.41270160675049,2.41269779205322,2.41269040107727,2.41268563270569,2.41268110275269,2.41267538070679,2.41266989707947,2.41266512870789,2.41265964508057,2.41265487670898,2.41265034675598,2.41264390945435,2.41263914108276,2.41263365745544,2.41262888908386,2.41262245178223,2.41261792182922,2.41261148452759,2.41260671615601,2.41260123252869,2.41259670257568,2.41259121894836,2.41258549690247,0,0,0,0,0,0,0,0,0,0,0,0,0,0,0,0,0,0,0,0,0,0,0,0,0,0,0,0,0,0
2.39792442321777,2.39791798591614,2.39791297912598,2.39790868759155,2.39790320396423,2.39789891242981,2.39789199829102,2.39788770675659,2.39788150787354,2.39787626266479,2.39787197113037,2.39786601066589,2.39786076545715,2.39785647392273,2.39785051345825,2.39784526824951,2.39784097671509,2.39783477783203,2.39782977104187,2.39782357215881,2.39781951904297,2.3978123664856,2.3978099822998,2.39780402183533,2.39779710769653,2.39779376983643,2.39778757095337,2.39778256416321,2.39777755737305,2.39777135848999,2.39776706695557,2.39776206016541,2.39775609970093,2.3977518081665,2.39774584770203,2.39774084091187,2.39773559570312,2.39773058891296,2.39772462844849,2.39772057533264,2.3977153301239,2.39770865440369,2.39770531654358,2.39769840240479,2.39769244194031,2.39768934249878,2.39768242835999,2.39767837524414,2.39767241477966,2.3976674079895,2.39766144752502,2.39765739440918,2.3976514339447,2.39764642715454,2.39764142036438,2.39763641357422,2.39763045310974,2.3976263999939,2.39762043952942,2.39761471748352,2.39761066436768,2.39760375022888,2.39759969711304,2.39759373664856,2.39758992195129,2.39758396148682,2.39757800102234,2.39757418632507,2.39756727218628,2.39756226539612,2.39755725860596,2.39755177497864,2.39754676818848,2.39754176139832,2.39753675460815,2.39753198623657,2.39752626419067,2.39752125740051,2.39751625061035,2.39751076698303,2.39750576019287,2.39749908447266,2.39749503135681,2.39748930931091,2.39748525619507,2.39747858047485,2.39747381210327,2.39746975898743,2.39746236801147,2.39745831489563,2.39745259284973,2.39744687080383,2.39744305610657,2.39743709564209,2.39743161201477,2.39742755889893,2.39742183685303,2.39741611480713,2.39741134643555,2.39740657806396,2.39740085601807,2.39739513397217,2.39739036560059,2.39738368988037,2.39738082885742,2.39737439155579,2.39736866950989,2.39736485481262,2.39735817909241,2.39735245704651,2.39734864234924,2.39734292030334,2.39733743667603,2.39733266830444,2.39732694625854,2.39732146263123,2.39731574058533,2.39731192588806,2.39730739593506,2.39730167388916,2.39729595184326,2.39729022979736,2.39728665351868,2.39727926254272,2.39727544784546,2.39726972579956,2.39726424217224,2.39726066589355,2.39725399017334,2.39724850654602,2.39724397659302,2.39723825454712,2.3972327709198,2.39722800254822,2.39722347259521,2.3972179889679,2.39721155166626,2.39720773696899,2.39720225334167,2.39719676971436,2.39719223976135,2.3971848487854,2.39718198776245,2.39717555046082,2.3971700668335,2.39716553688049,2.39716005325317,2.39715456962585,2.39715003967285,2.39714455604553,2.39713907241821,2.39713454246521,2.39712905883789,2.39712357521057,2.39711713790894,2.39711356163025,2.39710640907288,2.39710354804993,2.39709806442261,2.39709091186523,2.39708828926086,2.39708113670349,2.39707636833191,2.39707112312317,2.39706563949585,2.39706110954285,2.39705562591553,2.39705038070679,2.39704585075378,2.39704060554504,2.39703416824341,2.39702987670898,2.39702343940735,2.39701914787292,2.39701366424561,2.3970091342926,2.39700198173523,2.39699769020081,2.39699220657349,2.39698696136475,2.39698243141174,2.396977186203,2.39697098731995,2.39696645736694,2.3969612121582,2.39695596694946,2.39695143699646,2.39694428443909,2.39693999290466,2.39693474769592,2.39692950248718,2.39692521095276,2.39691877365112,2.3969144821167,2.39690828323364,2.39690399169922,2.39689779281616,2.39689254760742,2.396888256073,2.39688301086426,2.3968768119812,2.39687252044678,2.39686727523804,2.3968620300293,2.39685773849487,2.3968505859375,2.39684629440308,2.3968403339386,2.39683508872986,2.39683079719543,2.39682555198669,2.39682126045227,2.39681529998779,2.39681005477905,2.396803855896,2.39679956436157,2.39679455757141,2.39678835868835,2.39678311347961,2.39677906036377,2.3967719078064,2.39676880836487,2.39676356315613,2.39675664901733,2.39675331115723,2.39674639701843,2.39674115180969,2.39673614501953,2.39673089981079,2.39672589302063,2.39672064781189,2.39671564102173,2.39670968055725,2.39670562744141,2.39670038223267,2.39669442176819,2.39668917655945,2.39668440818787,2.39667820930481,2.39667320251465,2.39666819572449,2.39666223526001,2.39665913581848,2.39665222167969,2.39664697647095,2.3966429233551,2.39663696289062,2.39663100242615,2.3966269493103,2.39662003517151,2.39661598205566,2.39661002159119,2.39660596847534,2.3966019153595,2.3965950012207,2.39659094810486,2.39658498764038,2.39657926559448,2.39657425880432,2.39656925201416,2.396564245224,2.3965585231781,2.39655423164368,2.39654850959778,2.39654278755188,2.39653873443604,2.39653277397156,2.39652609825134,2.39652299880981,2.39651608467102,2.39651107788086,2.39650630950928,2.39650130271912,2.39649558067322,2.39649057388306,2.39648580551147,2.39648008346558,2.39647603034973,2.39647030830383,2.39646434783936,2.39645862579346,2.39645481109619,2.3964478969574,2.39644312858582,2.39643931388855,2.39643263816833,2.39642763137817,2.39642262458801,2.39641714096069,2.39641237258911,2.39640736579895,2.39640164375305,2.39639687538147,2.39639210700989,2.39638638496399,2.39638161659241,2.39637494087219,2.39637112617493,0,0,0,0,0,0,0,0,0,0,0,0,0,0,0,0,0,0,0,0,0,0,0,0,0,0,0,0,0,0
2.38190460205078,2.38189911842346,2.3818953037262,2.38188910484314,2.38188362121582,2.38187789916992,2.38187336921692,2.38186812400818,2.38186430931091,2.38185787200928,2.38185238838196,2.38184881210327,2.38184237480164,2.38183689117432,2.381831407547,2.38182687759399,2.38182163238525,2.38181781768799,2.38181161880493,2.38180613517761,2.38180065155029,2.38179612159729,2.38179063796997,2.38178515434265,2.38177990913391,2.38177537918091,2.38177084922791,2.38176465034485,2.38175940513611,2.38175463676453,2.38174939155579,2.38174295425415,2.38173842430115,2.38173413276672,2.38172888755798,2.38172435760498,2.38171815872192,2.38171291351318,2.38170742988586,2.38170289993286,2.3816967010498,2.38169240951538,2.38168692588806,2.38168263435364,2.38167810440063,2.38167190551758,2.38166761398315,2.38166117668152,2.38165593147278,2.38165068626404,2.38164639472961,2.38164114952087,2.38163661956787,2.38163137435913,2.38162517547607,2.38162088394165,2.38161468505859,2.38160943984985,2.38160419464111,2.38159990310669,2.38159465789795,2.38159012794495,2.38158416748047,2.38157892227173,2.3815746307373,2.38156843185425,2.38156318664551,2.38155794143677,2.38155269622803,2.38154768943787,2.38154411315918,2.38153719902039,2.38153290748596,2.38152670860291,2.38152170181274,2.38151741027832,2.38151121139526,2.38150691986084,2.3815016746521,2.38149762153625,2.38149166107178,2.38148641586304,2.38148021697998,2.38147592544556,2.3814709186554,2.38146495819092,2.38145971298218,2.38145470619202,2.38145136833191,2.38144445419312,2.38144111633301,2.38143420219421,2.38142919540405,2.38142395019531,2.38141894340515,2.38141369819641,2.38140869140625,2.38140368461609,2.38139867782593,2.3813943862915,2.38138747215271,2.38138246536255,2.38137912750244,2.38137412071228,2.38136720657349,2.38136315345764,2.38135814666748,2.381352186203,2.38134813308716,2.38134121894836,2.3813362121582,2.38133215904236,2.3813271522522,2.38132119178772,2.38131713867188,2.38131213188171,2.38130521774292,2.38130116462708,2.3812952041626,2.38129043579102,2.38128614425659,2.38128137588501,2.38127446174622,2.38127040863037,2.38126444816589,2.38125872612,2.38125538825989,2.38124895095825,2.38124394416809,2.38123798370361,2.38123297691345,2.38122820854187,2.38122415542603,2.38121843338013,2.38121247291565,2.38120770454407,2.38120269775391,2.38119864463806,2.38119196891785,2.38118720054626,2.38118314743042,2.38117837905884,2.38117146492004,2.38116765022278,2.38116097450256,2.3811559677124,2.38115215301514,2.38114547729492,2.38114070892334,2.3811366558075,2.38112998008728,2.3811252117157,2.38112115859985,2.38111448287964,2.38110971450806,2.38110494613647,2.38109922409058,2.38109445571899,2.3810887336731,2.38108396530151,2.38107919692993,2.38107538223267,2.38106870651245,2.38106393814087,2.38105821609497,2.38105344772339,2.38104677200317,2.38104295730591,2.38103723526001,2.38103270530701,2.38102698326111,2.38102221488953,2.38101744651794,2.38101172447205,2.38100695610046,2.38100051879883,2.38099670410156,2.38099098205566,2.38098549842834,2.38098073005676,2.38097596168518,2.38097214698792,2.38096570968628,2.38095998764038,2.3809552192688,2.38094973564148,2.38094425201416,2.38093948364258,2.38093495368958,2.38092827796936,2.38092446327209,2.38091897964478,2.38091444969177,2.38090872764587,2.38090419769287,2.38089776039124,2.38089299201965,2.38088750839233,2.38088202476501,2.38087844848633,2.38087296485901,2.38086819648743,2.38086271286011,2.38085722923279,2.38085174560547,2.38084721565247,2.38084053993225,2.38083600997925,2.38083052635193,2.38082504272461,2.38082051277161,2.3808159828186,2.3808114528656,2.38080501556396,2.38080143928528,2.38079500198364,2.38078951835632,2.380784034729,2.380779504776,2.38077425956726,2.38076877593994,2.38076424598694,2.38075876235962,2.38075518608093,2.3807487487793,2.38074445724487,2.38073801994324,2.38073253631592,2.38072800636292,2.38072276115417,2.38071727752686,2.38071393966675,2.38070750236511,2.38070225715637,2.38069868087769,2.38069128990173,2.38068699836731,2.38068151473999,2.38067626953125,2.38066983222961,2.38066649436951,2.38066101074219,2.38065576553345,2.38065218925476,2.3806459903717,2.38064074516296,2.38063549995422,2.3806300163269,2.38062381744385,2.38061952590942,2.380615234375,2.38060879707336,2.38060450553894,2.3805992603302,2.38059401512146,2.38058876991272,2.38058423995972,2.38057804107666,2.38057374954224,2.38056755065918,2.38056230545044,2.38055801391602,2.38055181503296,2.3805468082428,2.38054323196411,2.38053798675537,2.38053178787231,2.38052749633789,2.38052129745483,2.38051629066467,2.38051080703735,2.38050580024719,2.38050150871277,2.38049530982971,2.38049006462097,2.38048672676086,2.3804817199707,2.38047456741333,2.38047122955322,2.38046431541443,2.38046002388,2.38045573234558,2.3804497718811,2.38044452667236,2.38043856620789,2.38043427467346,2.3804292678833,2.38042497634888,2.38041877746582,2.38041377067566,2.38040781021118,2.38040351867676,2.3803985118866,2.38039255142212,2.38038730621338,2.3803813457489,2.38037705421448,2.38037204742432,0,0,0,0,0,0,0,0,0,0,0,0,0,0,0,0,0,0,0,0,0,0,0,0,0,0,0,0,0,0
2.36609768867493,2.36609363555908,2.36608672142029,2.36608290672302,2.36607789993286,2.3660728931427,2.36606693267822,2.36606216430664,2.36605620384216,2.36605143547058,2.36604809761047,2.36604237556458,2.3660364151001,2.36603164672852,2.36602663993835,2.36602091789246,2.36601686477661,2.36601114273071,2.36600613594055,2.36600041389465,2.36599564552307,2.36599254608154,2.36598587036133,2.36597990989685,2.36597514152527,2.36597037315369,2.36596441268921,2.36596155166626,2.36595487594604,2.3659508228302,2.36594605445862,2.3659393787384,2.36593532562256,2.36593055725098,2.36592578887939,2.36591911315918,2.3659143447876,2.3659086227417,2.36590385437012,2.36589908599854,2.36589431762695,2.36588859558105,2.36588382720947,2.36587905883789,2.36587333679199,2.36586952209473,2.36586380004883,2.36585807800293,2.36585235595703,2.36584854125977,2.36584210395813,2.36583924293518,2.36583256721497,2.36582684516907,2.3658230304718,2.36581754684448,2.3658127784729,2.36580801010132,2.36580157279968,2.36579585075378,2.36579203605652,2.36578750610352,2.36578273773193,2.36577701568604,2.3657705783844,2.36576771736145,2.36576128005981,2.36575651168823,2.36575174331665,2.36574721336365,2.36574172973633,2.36573600769043,2.36573147773743,2.36572575569153,2.36572217941284,2.36571645736694,2.36571025848389,2.3657054901123,2.3657009601593,2.3656952381134,2.36569166183472,2.36568522453308,2.36567974090576,2.3656759262085,2.36566972732544,2.36566519737244,2.36566042900085,2.36565494537354,2.3656485080719,2.36564493179321,2.36563944816589,2.36563491821289,2.36562943458557,2.36562395095825,2.36561942100525,2.36561393737793,2.36560940742493,2.36560392379761,2.36559844017029,2.36559295654297,2.36558842658997,2.36558318138123,2.36557865142822,2.3655731678009,2.36556768417358,2.36556315422058,2.36555695533752,2.36555337905884,2.36554789543152,2.3655424118042,2.36553716659546,2.36553263664246,2.36552715301514,2.36552262306213,2.36551666259766,2.36551213264465,2.36550760269165,2.36550140380859,2.36549782752991,2.36549162864685,2.36548614501953,2.36548066139221,2.36547636985779,2.36547017097473,2.36546659469604,2.3654613494873,2.36545515060425,2.36545157432556,2.3654453754425,2.36544108390808,2.36543655395508,2.36543035507202,2.36542415618896,2.36542081832886,2.36541628837585,2.36541032791138,2.36540484428406,2.36539959907532,2.36539435386658,2.36539006233215,2.36538577079773,2.36537957191467,2.36537432670593,2.36536884307861,2.36536383628845,2.36536026000977,2.36535406112671,2.36534810066223,2.36534380912781,2.36533856391907,2.36533331871033,2.3653290271759,2.36532378196716,2.36531853675842,2.36531233787537,2.36530828475952,2.36530494689941,2.36529874801636,2.36529278755188,2.36528754234314,2.36528325080872,2.36527729034424,2.36527395248413,2.36526775360107,2.3652617931366,2.36525845527649,2.36525249481201,2.36524820327759,2.36524295806885,2.36523675918579,2.36523079872131,2.36522769927979,2.36522150039673,2.36521649360657,2.36521220207214,2.36520624160767,2.3652012348175,2.36519694328308,2.36519193649292,2.36518597602844,2.3651807308197,2.36517572402954,2.36517071723938,2.36516571044922,2.36516141891479,2.36515545845032,2.36515045166016,2.36514544487,2.36513948440552,2.36513614654541,2.36513042449951,2.36512446403503,2.36511945724487,2.36511516571045,2.36510920524597,2.36510515213013,2.36509943008423,2.3650951385498,2.36509013175964,2.36508440971375,2.36508011817932,2.36507439613342,2.36506843566895,2.36506414413452,2.36505937576294,2.36505341529846,2.3650484085083,2.36504364013672,2.36503767967224,2.36503458023071,2.36502861976624,2.36502289772034,2.36501789093018,2.36501312255859,2.36500716209412,2.36500406265259,2.36499738693237,2.3649914264679,2.36498832702637,2.36498260498047,2.36497783660889,2.36497282981873,2.36496686935425,2.36496114730835,2.36495733261108,2.36495137214661,2.36494660377502,2.36494159698486,2.36493587493896,2.3649320602417,2.36492705345154,2.36492228507996,2.36491656303406,2.3649115562439,2.36490511894226,2.36490106582642,2.36489629745483,2.36489152908325,2.36488580703735,2.36488080024719,2.36487603187561,2.36487030982971,2.36486649513245,2.36486077308655,2.36485600471497,2.36485028266907,2.36484551429749,2.3648407459259,2.36483407020569,2.36483025550842,2.36482453346252,2.36482071876526,2.36481428146362,2.36480927467346,2.36480355262756,2.36479902267456,2.36479425430298,2.3647894859314,2.3647837638855,2.36477899551392,2.36477446556091,2.36476874351501,2.36476492881775,2.36475849151611,2.36475276947021,2.36474800109863,2.36474347114563,2.36473774909973,2.36473417282104,2.36472845077515,2.36472201347351,2.36471915245056,2.36471271514893,2.36470818519592,2.36470222473145,2.36469769477844,2.36469125747681,2.36468768119812,2.36468195915222,2.3646764755249,2.36467266082764,2.364666223526,2.364661693573,2.36465692520142,2.3646514415741,2.36464500427246,2.36464238166809,2.36463594436646,2.36463212966919,2.36462664604187,2.36462020874023,2.36461663246155,2.36461114883423,2.36460661888123,2.36460185050964,2.36459541320801,2.36458992958069,2.364586353302,0,0,0,0,0,0,0,0,0,0,0,0,0,0,0,0,0,0,0,0,0,0,0,0,0,0,0,0,0,0
2.35050058364868,2.35049510002136,2.35049057006836,2.35048508644104,2.35047960281372,2.35047507286072,2.35046887397766,2.35046339035034,2.35046076774597,2.35045552253723,2.3504490852356,2.35044550895691,2.35043931007385,2.35043406486511,2.35042953491211,2.35042405128479,2.35041880607605,2.35041522979736,2.35040998458862,2.3504045009613,2.35040020942688,2.35039472579956,2.3503885269165,2.3503839969635,2.35037875175476,2.35037350654602,2.3503692150116,2.35036373138428,2.35035943984985,2.35035514831543,2.35034966468811,2.35034346580505,2.35033917427063,2.35033392906189,2.35032939910889,2.35032415390015,2.35031795501709,2.35031366348267,2.35030841827393,2.3503041267395,2.35029983520508,2.35029458999634,2.35028839111328,2.35028409957886,2.35027885437012,2.35027360916138,2.35026931762695,2.3502631187439,2.35025787353516,2.35025453567505,2.35024929046631,2.35024333000183,2.35023880004883,2.35023379325867,2.35022854804993,2.35022330284119,2.35021829605103,2.35021305084229,2.35020875930786,2.35020279884338,2.35019850730896,2.35019421577454,2.3501889705658,2.35018301010132,2.35017871856689,2.35017347335815,2.35016751289368,2.35016322135925,2.35015726089478,2.35015225410461,2.35014796257019,2.35014367103577,2.35013771057129,2.35013365745544,2.3501284122467,2.35012245178223,2.3501181602478,2.35011219978333,2.35010719299316,2.35010290145874,2.3500988483429,2.35009288787842,2.35008859634399,2.35008263587952,2.35007858276367,2.35007262229919,2.35006761550903,2.35006332397461,2.35005736351013,2.35005259513855,2.35004734992981,2.35004329681396,2.35003638267517,2.35003328323364,2.35002636909485,2.350022315979,2.35001826286316,2.35001230239868,2.35000729560852,2.35000228881836,2.3499972820282,2.34999132156372,2.34998846054077,2.34998154640198,2.34997749328613,2.34997153282166,2.34996747970581,2.34996175765991,2.34995770454407,2.34995174407959,2.34994697570801,2.34994196891785,2.34993696212769,2.3499321937561,2.34992694854736,2.34992218017578,2.34991550445557,2.34991240501404,2.34990572929382,2.34990167617798,2.34989666938782,2.34989190101624,2.34988617897034,2.34988212585449,2.34987640380859,2.34987139701843,2.34986758232117,2.34986090660095,2.34985780715942,2.34985089302063,2.34984612464905,2.34984111785889,2.34983658790588,2.34983086585999,2.34982681274414,2.34982109069824,2.34981536865234,2.3498113155365,2.3498055934906,2.34980177879333,2.34979605674744,2.34979128837585,2.34978461265564,2.34978175163269,2.34977602958679,2.34977126121521,2.34976625442505,2.34976077079773,2.34975504875183,2.34975123405457,2.34974646568298,2.34973978996277,2.34973692893982,2.34973120689392,2.3497257232666,2.34972167015076,2.34971618652344,2.34971046447754,2.34970569610596,2.34969997406006,2.34969544410706,2.34969067573547,2.34968495368958,2.34967947006226,2.34967660903931,2.34967088699341,2.34966540336609,2.34966063499451,2.34965586662292,2.34965109825134,2.34964561462402,2.3496401309967,2.34963536262512,2.3496298789978,2.34962439537048,2.34962153434753,2.34961485862732,2.34961032867432,2.34960651397705,2.34960103034973,2.34959554672241,2.34959077835083,2.34958529472351,2.34957981109619,2.34957695007324,2.34956955909729,2.3495659828186,2.34955954551697,2.3495557308197,2.34954857826233,2.34954571723938,2.34954023361206,2.34953474998474,2.34953022003174,2.34952473640442,2.3495192527771,2.3495147228241,2.34950923919678,2.34950375556946,2.34950089454651,2.34949374198914,2.34949016571045,2.34948468208313,2.34948015213013,2.34947276115417,2.3494701385498,2.34946465492249,2.34945917129517,2.34945487976074,2.34944939613342,2.3494439125061,2.3494393825531,2.3494348526001,2.34942865371704,2.34942507743835,2.34941959381104,2.34941530227661,2.34940981864929,2.34940433502197,2.34940004348755,2.34939455986023,2.34938931465149,2.34938478469849,2.34937930107117,2.34937310218811,2.34936881065369,2.349365234375,2.34935903549194,2.34935450553894,2.3493492603302,2.34934401512146,2.34933948516846,2.34933423995972,2.3493287563324,2.34932446479797,2.34931921958923,2.34931302070618,2.34931039810181,2.34930324554443,2.34929895401001,2.34929347038269,2.34928917884827,2.34928393363953,2.3492796421051,2.34927344322205,2.34926819801331,2.34926390647888,2.34925866127014,2.3492534160614,2.34924817085266,2.34924483299255,2.34923768043518,2.34923434257507,2.34922814369202,2.34922385215759,2.34921765327454,2.34921336174011,2.34920811653137,2.34920382499695,2.34919857978821,2.34919357299805,2.34918832778931,2.34918308258057,2.34917879104614,2.34917283058167,2.34916758537292,2.3491632938385,2.34915900230408,2.3491530418396,2.34914875030518,2.34914350509644,2.34913754463196,2.34913349151611,2.34912824630737,2.34912300109863,2.34911799430847,2.34911274909973,2.34910774230957,2.34910249710083,2.34909844398499,2.34909152984619,2.3490891456604,2.34908223152161,2.34907793998718,2.34907388687134,2.34906792640686,2.3490629196167,2.34905767440796,2.3490526676178,2.34904766082764,2.3490424156189,2.34903740882874,2.34903335571289,2.34902739524841,2.34902334213257,2.34901642799377,2.34901309013367,2.34900617599487,0,0,0,0,0,0,0,0,0,0,0,0,0,0,0,0,0,0,0,0,0,0,0,0,0,0,0,0,0,0
2.3351047039032,2.33510136604309,2.33509540557861,2.33509039878845,2.33508634567261,2.33508110046387,2.33507704734802,2.33507013320923,2.33506512641907,2.33506107330322,2.33505606651306,2.33505010604858,2.33504700660706,2.33504104614258,2.33503603935242,2.33503198623657,2.33502697944641,2.33502197265625,2.33501601219177,2.33501100540161,2.33500599861145,2.33500218391418,2.33499526977539,2.33499217033386,2.33498620986938,2.3349814414978,2.33497643470764,2.3349723815918,2.33496737480164,2.33496069908142,2.33495664596558,2.33495163917542,2.33494687080383,2.33494091033936,2.33493781089783,2.33493113517761,2.33492708206177,2.33492231369019,2.33491730690002,2.33491253852844,2.33490657806396,2.33490180969238,2.33489775657654,2.33489203453064,2.33488631248474,2.33488321304321,2.334876537323,2.33487176895142,2.33486771583557,2.33486294746399,2.33485722541809,2.33485221862793,2.33484745025635,2.3348433971405,2.33483791351318,2.33483219146729,2.33482909202576,2.33482241630554,2.33481764793396,2.33481383323669,2.3348081111908,2.33480334281921,2.33479762077332,2.33479261398315,2.33478808403015,2.33478403091431,2.33477759361267,2.33477187156677,2.33476996421814,2.33476328849792,2.33475852012634,2.33475375175476,2.33474898338318,2.33474254608154,2.3347384929657,2.33473372459412,2.3347282409668,2.33472347259521,2.33471775054932,2.33471417427063,2.33470916748047,2.33470368385315,2.33469891548157,2.33469438552856,2.33468866348267,2.33468317985535,2.33467936515808,2.33467388153076,2.33466815948486,2.33466362953186,2.33465981483459,2.33465337753296,2.33464956283569,2.33464479446411,2.33463931083679,2.33463382720947,2.33462905883789,2.33462524414062,2.33461976051331,2.3346152305603,2.3346095085144,2.33460402488708,2.33459949493408,2.33459568023682,2.33458924293518,2.33458566665649,2.33458018302917,2.33457469940186,2.33456993103027,2.33456540107727,2.33456087112427,2.33455443382263,2.33454990386963,2.33454537391663,2.33453989028931,2.33453440666199,2.33452987670898,2.33452439308167,2.33452081680298,2.33451437950134,2.33451080322266,2.33450627326965,2.33449983596802,2.33449530601501,2.33449077606201,2.33448624610901,2.33448004722595,2.33447527885437,2.33447003364563,2.33446550369263,2.33446002006531,2.33445477485657,2.33445119857788,2.33444571495056,2.33444046974182,2.33443593978882,2.33443140983582,2.33442521095276,2.33442068099976,2.33441615104675,2.33441090583801,2.33440732955933,2.33440113067627,2.33439564704895,2.33439135551453,2.33438682556152,2.33438062667847,2.3343780040741,2.33437085151672,2.3343665599823,2.3343620300293,2.33435678482056,2.33435225486755,2.33434700965881,2.33434176445007,2.33433651924133,2.33433294296265,2.33432579040527,2.33432149887085,2.33431720733643,2.33431172370911,2.33430552482605,2.33430314064026,2.33429789543152,2.33429169654846,2.33428716659546,2.3342821598053,2.33427786827087,2.33427143096924,2.33426713943481,2.33426213264465,2.33425760269165,2.33425259590149,2.33424639701843,2.33424210548401,2.33423781394958,2.33423256874084,2.3342273235321,2.33422303199768,2.3342170715332,2.33421277999878,2.33420753479004,2.3342022895813,2.33419895172119,2.3341920375824,2.33418679237366,2.33418345451355,2.33417844772339,2.33417320251465,2.33416795730591,2.33416295051575,2.33415865898132,2.33415246009827,2.33414840698242,2.334144115448,2.33413815498352,2.33413314819336,2.33412885665894,2.3341236114502,2.33411765098572,2.33411335945129,2.33410835266113,2.33410334587097,2.33410000801086,2.33409309387207,2.33408808708191,2.33408379554749,2.33407878875732,2.33407282829285,2.33406972885132,2.33406352996826,2.3340585231781,2.33405327796936,2.33404946327209,2.33404445648193,2.33403921127319,2.33403420448303,2.33402919769287,2.33402514457703,2.33401823043823,2.33401322364807,2.33400988578796,2.33400416374207,2.33399820327759,2.33399415016174,2.3339900970459,2.33398413658142,2.33398008346558,2.33397340774536,2.33397006988525,2.33396434783936,2.33395934104919,2.33395528793335,2.33395028114319,2.33394551277161,2.33394026756287,2.33393549919128,2.33393049240112,2.33392643928528,2.33391976356506,2.3339147567749,2.33391070365906,2.3339056968689,2.33389902114868,2.33389496803284,2.33389115333557,2.33388519287109,2.33388137817383,2.33387637138367,2.33387064933777,2.33386564254761,2.33386087417603,2.33385610580444,2.33385109901428,2.3338451385498,2.33384037017822,2.33383655548096,2.33383083343506,2.3338258266449,2.33382105827332,2.33381533622742,2.33381056785583,2.33380651473999,2.33379983901978,2.33379507064819,2.33379101753235,2.33378624916077,2.33378148078918,2.3337767124176,2.33377194404602,2.33376526832581,2.33376145362854,2.33375668525696,2.33375191688538,2.33374619483948,2.3337414264679,2.33373665809631,2.33373188972473,2.33372712135315,2.33372139930725,2.33371663093567,2.33371186256409,2.33370804786682,2.33370137214661,2.3336968421936,2.33369207382202,2.33368730545044,2.33368253707886,2.33367681503296,2.33367323875427,2.33366656303406,2.33366274833679,2.33365821838379,2.33365249633789,2.33364772796631,2.33364224433899,2.33363747596741,2.33363366127014,0,0,0,0,0,0,0,0,0,0,0,0,0,0,0,0,0,0,0,0,0,0,0,0,0,0,0,0,0,0
2.31991171836853,2.31990718841553,2.31990218162537,2.31989741325378,2.31989288330078,2.31988787651062,2.31988310813904,2.3198766708374,2.31987357139587,2.31986713409424,2.31986236572266,2.31985759735107,2.31985282897949,2.31984829902649,2.31984353065491,2.31983876228333,2.31983304023743,2.31982946395874,2.31982278823853,2.31981825828552,2.31981348991394,2.31980872154236,2.31980419158936,2.31979942321777,2.31979465484619,2.31978988647461,2.31978535652161,2.31977891921997,2.31977510452271,2.31976938247681,2.3197648525238,2.3197603225708,2.31975555419922,2.31975102424622,2.31974530220032,2.31974077224731,2.31973528862,2.31973147392273,2.31972503662109,2.31972050666809,2.31971573829651,2.31971120834351,2.3197066783905,2.31970191001892,2.31969666481018,2.31969118118286,2.3196873664856,2.31968188285828,2.31967639923096,2.31967186927795,2.31966733932495,2.31966090202332,2.31965732574463,2.31965279579163,2.31964731216431,2.31964349746704,2.31963729858398,2.31963276863098,2.3196280002594,2.31962275505066,2.31961727142334,2.31961369514465,2.31960725784302,2.31960272789001,2.31959843635559,2.31959295272827,2.31958842277527,2.31958389282227,2.31957936286926,2.31957411766052,2.31956958770752,2.31956315040588,2.3195595741272,2.31955432891846,2.31954884529114,2.31954431533813,2.31954002380371,2.31953382492065,2.31953024864197,2.31952571868896,2.31951951980591,2.31951594352722,2.31950974464417,2.31950521469116,2.31949996948242,2.319495677948,2.31949019432068,2.31948590278625,2.31948041915894,2.3194751739502,2.31947064399719,2.31946635246277,2.31946110725403,2.31945657730103,2.31945157051086,2.31944608688354,2.31944179534912,2.31943655014038,2.31943130493164,2.31942677497864,2.3194215297699,2.31941628456116,2.31941199302673,2.31940674781799,2.31940150260925,2.31939721107483,2.31939196586609,2.31938672065735,2.31938242912292,2.3193781375885,2.31937193870544,2.31936860084534,2.31936240196228,2.31935906410217,2.31935286521912,2.31934857368469,2.31934332847595,2.31933832168579,2.31933403015137,2.31932878494263,2.3193244934082,2.31931853294373,2.31931495666504,2.31930899620056,2.3193039894104,2.3192994594574,2.31929445266724,2.31928825378418,2.31928515434265,2.31928086280823,2.31927490234375,2.31927061080933,2.31926465034485,2.31926035881042,2.31925511360168,2.31925106048584,2.31924486160278,2.31924080848694,2.31923580169678,2.31923055648804,2.31922721862793,2.31922125816345,2.31921625137329,2.31921124458313,2.31920695304871,2.31920099258423,2.31919693946838,2.31919097900391,2.31918668746948,2.31918168067932,2.31917667388916,2.31917262077332,2.31916737556458,2.31916236877441,2.31915664672852,2.31915330886841,2.31914734840393,2.31914234161377,2.31913828849792,2.31913328170776,2.31912922859192,2.31912326812744,2.3191192150116,2.31911420822144,2.31910920143127,2.3191032409668,2.31910014152527,2.31909418106079,2.31908917427063,2.31908416748047,2.31907939910889,2.31907534599304,2.31907033920288,2.31906533241272,2.31905937194824,2.31905627250671,2.3190495967865,2.31904554367065,2.31904053688049,2.31903576850891,2.31903004646301,2.31902599334717,2.31902194023132,2.31901597976685,2.31901216506958,2.3190062046051,2.31900143623352,2.31899642944336,2.31899166107178,2.31898593902588,2.31898283958435,2.31897616386414,2.31897211074829,2.31896734237671,2.31896233558655,2.31895661354065,2.31895279884338,2.31894683837891,2.31894207000732,2.31893730163574,2.31893229484558,2.31892681121826,2.31892275810242,2.31891703605652,2.31891298294067,2.31890726089478,2.31890249252319,2.31889772415161,2.31889295578003,2.31888723373413,2.31888341903687,2.31887769699097,2.31887292861938,2.31886982917786,2.31886339187622,2.31885957717896,2.31885385513306,2.31884980201721,2.31884336471558,2.31883955001831,2.31883382797241,2.31882905960083,2.31882619857788,2.31881952285767,2.31881499290466,2.31881022453308,2.3188054561615,2.3187997341156,2.31879591941833,2.31879043579102,2.31878566741943,2.31878089904785,2.31877636909485,2.31877160072327,2.31876611709595,2.31876230239868,2.31875586509705,2.31875205039978,2.31874632835388,2.31874179840088,2.3187370300293,2.31873250007629,2.31872582435608,2.31872320175171,2.31871843338013,2.31871199607849,2.31870818138123,2.31870269775391,2.3186981678009,2.31869268417358,2.318687915802,2.31868314743042,2.31867861747742,2.3186731338501,2.31866955757141,2.31866312026978,2.31865859031677,2.31865382194519,2.31864929199219,2.31864285469055,2.31863927841187,2.31863379478455,2.31862926483154,2.31862449645996,2.31861925125122,2.3186137676239,2.31860995292664,2.31860446929932,2.318598985672,2.31859469413757,2.31858992576599,2.31858372688293,2.31858015060425,2.31857466697693,2.31857013702393,2.31856656074524,2.3185601234436,2.31855583190918,2.3185510635376,2.31854581832886,2.31854033470154,2.31853675842285,2.31853055953979,2.31852602958679,2.31852149963379,2.31851601600647,2.31851172447205,2.31850719451904,2.31850290298462,2.31849646568298,2.3184928894043,2.31848669052124,2.31848239898682,2.31847763061523,2.31847238540649,2.31846904754639,2.31846356391907,2.31845736503601,0,0,0,0,0,0,0,0,0,0,0,0,0,0,0,0,0,0,0,0,0,0,0,0,0,0,0,0,0,0
2.3049144744873,2.30490899085999,2.3049054145813,2.30490064620972,2.30489635467529,2.30488896369934,2.30488610267639,2.30488061904907,2.30487608909607,2.30487060546875,2.30486607551575,2.30486083030701,2.30485701560974,2.304851770401,2.30484628677368,2.30484342575073,2.30483722686768,2.30483174324036,2.30482721328735,2.30482363700867,2.30481719970703,2.30481266975403,2.30480742454529,2.30480289459229,2.30479836463928,2.30479311943054,2.30478858947754,2.30478405952454,2.30477857589722,2.30477333068848,2.30476975440979,2.30476450920105,2.30475902557373,2.30475544929504,2.3047502040863,2.30474472045898,2.30474019050598,2.30473589897156,2.30473065376282,2.30472612380981,2.30471992492676,2.30471730232239,2.30471110343933,2.30470585823059,2.30470323562622,2.30469703674316,2.30469155311584,2.30468726158142,2.304682970047,2.30467748641968,2.30467319488525,2.3046669960022,2.30466270446777,2.30465817451477,2.30465292930603,2.30464863777161,2.30464434623718,2.30464005470276,2.30463290214539,2.3046293258667,2.30462431907654,2.30462002754211,2.30461359024048,2.30461025238037,2.30460405349731,2.30460071563721,2.30459547042847,2.30459022521973,2.30458688735962,2.30458164215088,2.3045756816864,2.30457139015198,2.30456709861755,2.30456185340881,2.30455660820007,2.30455255508423,2.30454730987549,2.30454301834106,2.30453681945801,2.30453252792358,2.30452823638916,2.30452227592468,2.30451726913452,2.30451393127441,2.30450868606567,2.30450344085693,2.30449938774109,2.30449414253235,2.30448985099792,2.30448389053345,2.3044798374176,2.30447554588318,2.3044695854187,2.30446434020996,2.30446100234985,2.30445504188538,2.30445003509521,2.30444669723511,2.30444073677063,2.30443572998047,2.30443048477173,2.30442643165588,2.30442118644714,2.30441641807556,2.30441117286682,2.30440711975098,2.30440187454224,2.30439710617065,2.30439281463623,2.30438780784607,2.30438280105591,2.30437684059143,2.3043737411499,2.30436873435974,2.30436253547668,2.30435848236084,2.30435371398926,2.30434846878052,2.30434346199036,2.30433940887451,2.30433464050293,2.30432939529419,2.30432367324829,2.30431962013245,2.3043155670166,2.30430960655212,2.30430459976196,2.30430054664612,2.30429553985596,2.30428981781006,2.30428671836853,2.30428075790405,2.30427670478821,2.30427098274231,2.30426692962646,2.3042619228363,2.30425691604614,2.30425310134888,2.30424809455872,2.30424237251282,2.30423736572266,2.30423355102539,2.30422854423523,2.30422258377075,2.30421781539917,2.30421376228333,2.30420804023743,2.30420398712158,2.30419993400574,2.30419421195984,2.30418944358826,2.30418372154236,2.30417966842651,2.30417561531067,2.30416989326477,2.30416417121887,2.30416131019592,2.30415534973145,2.30414986610413,2.3041467666626,2.3041410446167,2.3041353225708,2.30413126945496,2.30412650108337,2.30412173271179,2.30411696434021,2.30411124229431,2.30410742759705,2.30410265922546,2.30409693717957,2.3040931224823,2.30408835411072,2.30408263206482,2.30407691001892,2.30407404899597,2.30406832695007,2.30406451225281,2.30405879020691,2.30405402183533,2.30404925346375,2.30404448509216,2.30403971672058,2.304034948349,2.304030418396,2.3040246963501,2.30402088165283,2.30401539802551,2.30400967597961,2.30400586128235,2.30400133132935,2.30399560928345,2.30399179458618,2.3039870262146,2.30398154258728,2.3039767742157,2.30397129058838,2.30396747589111,2.30396294593811,2.30395722389221,2.30395174026489,2.30394887924194,2.30394339561462,2.30393767356873,2.30393409729004,2.30392837524414,2.30392289161682,2.30391836166382,2.30391454696655,2.30390906333923,2.30390429496765,2.30389976501465,2.30389428138733,2.30389046669006,2.30388402938843,2.30388045310974,2.30387592315674,2.30387043952942,2.3038649559021,2.30386137962341,2.30385589599609,2.30385041236877,2.30384755134583,2.30384206771851,2.3038375377655,2.30383205413818,2.30382752418518,2.30382299423218,2.30381751060486,2.30381202697754,2.30380845069885,2.30380201339722,2.30379772186279,2.30379486083984,2.30378937721252,2.30378317832947,2.30377864837646,2.30377507209778,2.30376768112183,2.30376505851746,2.3037588596344,2.30375337600708,2.30375075340271,2.30374526977539,2.30374097824097,2.30373454093933,2.30373096466064,2.30372476577759,2.30372023582458,2.30371499061584,2.30371046066284,2.30370616912842,2.3037006855011,2.30369639396667,2.30369186401367,2.30368661880493,2.30368113517761,2.30367755889893,2.30367231369019,2.30366706848145,2.30366253852844,2.30365824699402,2.30365300178528,2.30364847183228,2.30364418029785,2.30363798141479,2.30363368988037,2.30362820625305,2.30362486839294,2.3036196231842,2.30361437797546,2.30360984802246,2.30360555648804,2.3036003112793,2.30359506607056,2.30359172821045,2.30358552932739,2.30358123779297,2.30357575416565,2.3035717010498,2.3035671710968,2.30356121063232,2.30355596542358,2.30355262756348,2.30354738235474,2.303542137146,2.30353856086731,2.30353164672852,2.30352735519409,2.30352306365967,2.30351877212524,2.30351185798645,2.30350852012634,2.3035032749176,2.30349802970886,2.30349469184875,2.30348873138428,2.30348348617554,2.30347919464111,2.30347514152527,2.30346918106079,2.30346465110779,2.30345964431763,2.3034553527832,2.30345034599304,2.3034451007843,2.30344104766846,2.30343580245972,2.30343079566956,2.30342555046082,2.30342245101929,2.30341625213623,2.30341124534607,2.30340623855591,0,0,0,0,0,0,0,0,0,0,0,0,0,0,0
2.29010987281799,2.29010462760925,2.29010105133057,2.29009556770325,2.29009032249451,2.2900857925415,2.29008150100708,2.29007601737976,2.29007148742676,2.29006624221802,2.29006171226501,2.29005718231201,2.2900538444519,2.29004740715027,2.29004406929016,2.2900378704071,2.29003524780273,2.29002809524536,2.29002475738525,2.29001927375793,2.29001498222351,2.29001045227051,2.29000616073608,2.29000091552734,2.28999543190002,2.2899911403656,2.2899866104126,2.28998160362244,2.28997707366943,2.28997182846069,2.28996658325195,2.28996300697327,2.28995800018311,2.28995251655579,2.28994822502136,2.28994297981262,2.28993773460388,2.28993344306946,2.28992819786072,2.28992390632629,2.28991961479187,2.28991436958313,2.28990912437439,2.28990483283997,2.28989958763123,2.28989458084106,2.28989005088806,2.28988480567932,2.28987979888916,2.28987646102905,2.28987121582031,2.28986597061157,2.28986263275146,2.28985667228699,2.28985238075256,2.28984713554382,2.28984308242798,2.28983783721924,2.28983449935913,2.28982758522034,2.28982496261597,2.28981804847717,2.28981471061707,2.28981065750122,2.28980541229248,2.28980040550232,2.2897961139679,2.28979110717773,2.28978586196899,2.28978180885315,2.28977656364441,2.28977155685425,2.28976726531982,2.28976225852966,2.2897572517395,2.28975296020508,2.28974795341492,2.28974294662476,2.28973865509033,2.28973269462585,2.28972768783569,2.28972363471985,2.28971862792969,2.28971338272095,2.2897093296051,2.28970432281494,2.28969931602478,2.28969502449036,2.2896900177002,2.28968501091003,2.28968095779419,2.28967499732971,2.28966999053955,2.28966593742371,2.28966283798218,2.28965592384338,2.28965282440186,2.28964686393738,2.28964281082153,2.28963780403137,2.28963208198547,2.28962707519531,2.28962302207947,2.28961801528931,2.28961396217346,2.28960990905762,2.28960299491882,2.28960084915161,2.2895941734314,2.28959012031555,2.28958511352539,2.28958106040955,2.28957438468933,2.28957223892212,2.2895655632019,2.28956151008606,2.28955745697021,2.28955268859863,2.28954672813416,2.28954291343689,2.28953790664673,2.28953313827515,2.2895290851593,2.28952240943909,2.28951835632324,2.28951454162598,2.2895085811615,2.28950381278992,2.28949975967407,2.28949499130249,2.28948926925659,2.28948521614075,2.28948044776917,2.28947472572327,2.289470911026,2.28946590423584,2.28946113586426,2.28945636749268,2.28945159912109,2.28944659233093,2.28944182395935,2.28943705558777,2.28943228721619,2.2894275188446,2.28942275047302,2.28941798210144,2.28941321372986,2.28940844535828,2.28940439224243,2.28939867019653,2.28939414024353,2.28939008712769,2.28938460350037,2.28937983512878,2.2893750667572,2.28937029838562,2.28936648368835,2.28936076164246,2.28935694694519,2.28935050964355,2.28934764862061,2.28934192657471,2.28933620452881,2.28933238983154,2.28932690620422,2.28932213783264,2.28931736946106,2.28931379318237,2.28930711746216,2.28930521011353,2.28929877281189,2.28929495811462,2.28928923606873,2.28928565979004,2.2892792224884,2.28927636146545,2.28926968574524,2.28926610946655,2.28926157951355,2.28925490379333,2.28925132751465,2.28924560546875,2.28924202919006,2.28923559188843,2.28923273086548,2.28922629356384,2.28922247886658,2.28921890258789,2.28921341896057,2.28920793533325,2.28920412063599,2.28919863700867,2.28919410705566,2.28918957710266,2.28918313980103,2.28918027877808,2.28917384147644,2.28917026519775,2.28916668891907,2.28916120529175,2.28915572166443,2.28915190696716,2.28914666175842,2.2891411781311,2.28913760185242,2.2891321182251,2.28912758827209,2.28912305831909,2.28911757469177,2.28911304473877,2.28910851478577,2.28910398483276,2.28909850120544,2.28909397125244,2.28908967971802,2.2890841960907,2.2890796661377,2.28907513618469,2.28906989097595,2.28906536102295,2.28906083106995,2.28905534744263,2.2890510559082,2.28904557228088,2.28904128074646,2.28903675079346,2.28903126716614,2.28902697563171,2.28902244567871,2.28901720046997,2.28901171684265,2.28900837898254,2.28900289535522,2.28899765014648,2.2889940738678,2.28898882865906,2.28898358345032,2.28897905349731,2.28897476196289,2.28897023200989,2.28896498680115,2.28895974159241,2.28895616531372,2.28895092010498,2.28894567489624,2.28894114494324,2.2889358997345,2.28893160820007,2.28892731666565,2.28892207145691,2.28891682624817,2.28891253471375,2.28890800476074,2.288902759552,2.28889846801758,2.28889322280884,2.2888879776001,2.28888368606567,2.28887939453125,2.28887414932251,2.2888708114624,2.28886461257935,2.28885960578918,2.28885507583618,2.28885006904602,2.28884482383728,2.28884148597717,2.28883624076843,2.28883099555969,2.28882670402527,2.28882169723511,2.28881740570068,2.28881216049194,2.28880882263184,2.28880190849304,2.28879761695862,2.28879237174988,2.28878808021545,2.28878402709961,2.28877878189087,2.28877377510071,2.28876948356628,2.28876519203186,2.28875923156738,2.28875589370728,2.2887499332428,2.28874564170837,2.28874063491821,2.28873562812805,2.28873133659363,2.28872632980347,2.28872227668762,2.28871703147888,2.28871369361877,2.28870677947998,2.28870463371277,2.28869771957397,2.28869247436523,2.28868842124939,2.28868317604065,2.28867840766907,2.28867411613464,2.2886700630188,2.28866410255432,2.28866100311279,2.28865504264832,2.28865098953247,2.28864574432373,2.28864002227783,2.28863501548767,2.28863072395325,2.28862571716309,2.28862071037292,2.28861856460571,2.28861165046692,2.28860759735107,2.28860259056091,2.28859853744507,2.28859186172485,2.28858757019043,2.28858280181885,2.28857779502869,2.28857374191284,2.28856873512268,2.28856492042542,2.28855991363525,2.28855586051941,2.28854894638062
2.27549600601196,2.27548980712891,2.2754852771759,2.27548098564148,2.27547645568848,2.27547025680542,2.27546668052673,2.27546238899231,2.27545690536499,2.2754533290863,2.27544713020325,2.27544283866882,2.27543830871582,2.2754340171814,2.27542781829834,2.27542424201965,2.27541995048523,2.27541470527649,2.27540922164917,2.27540493011475,2.27540063858032,2.27539610862732,2.2753918170929,2.27538561820984,2.27538228034973,2.27537703514099,2.27537250518799,2.27536725997925,2.27536225318909,2.2753586769104,2.27535438537598,2.27534914016724,2.2753438949585,2.27533960342407,2.27533435821533,2.27533102035522,2.27532482147217,2.27532052993774,2.27531623840332,2.2753119468689,2.27530670166016,2.27530145645142,2.27529716491699,2.27529191970825,2.27528858184814,2.27528262138367,2.27527737617493,2.2752730846405,2.2752697467804,2.2752628326416,2.27525949478149,2.27525520324707,2.27524828910828,2.2752468585968,2.27523970603943,2.275235414505,2.27523040771484,2.27522540092468,2.27522110939026,2.27521681785583,2.27521061897278,2.27520656585693,2.27520227432251,2.27519822120667,2.2751932144165,2.27518796920776,2.2751829624176,2.27517867088318,2.27517461776733,2.27516841888428,2.27516436576843,2.27516031265259,2.27515506744385,2.275151014328,2.27514600753784,2.27514100074768,2.27513766288757,2.27513265609741,2.27512669563293,2.27512240409851,2.27511835098267,2.2751133441925,2.27510929107666,2.27510333061218,2.27509832382202,2.27509498596191,2.27508997917175,2.27508425712585,2.27507996559143,2.27507591247559,2.27507090568542,2.27506589889526,2.2750608921051,2.27505588531494,2.27505278587341,2.27504801750183,2.27504205703735,2.27503800392151,2.27503299713135,2.2750289440155,2.27502393722534,2.27501893043518,2.27501225471497,2.27501010894775,2.27500510215759,2.27499938011169,2.27499604225159,2.27498936653137,2.27498626708984,2.27498126029968,2.2749764919281,2.27497053146362,2.27496671676636,2.27496361732483,2.27495694160461,2.27495384216309,2.27494716644287,2.27494239807129,2.27493906021118,2.2749342918396,2.27492928504944,2.27492451667786,2.27491974830627,2.27491569519043,2.27491092681885,2.27490520477295,2.2749011516571,2.27489638328552,2.27489161491394,2.27488660812378,2.2748818397522,2.27487707138062,2.27487397193909,2.27486729621887,2.27486252784729,2.27485942840576,2.27485466003418,2.2748498916626,2.2748441696167,2.27483940124512,2.27483558654785,2.27483153343201,2.27482509613037,2.27482032775879,2.27481651306152,2.27481269836426,2.27480792999268,2.27480220794678,2.2747974395752,2.2747917175293,2.27478790283203,2.27478313446045,2.27477836608887,2.27477359771729,2.2747688293457,2.2747642993927,2.27476048469543,2.27475571632385,2.27474904060364,2.27474546432495,2.27474069595337,2.27473592758179,2.27473115921021,2.2747266292572,2.27472186088562,2.27471804618835,2.27471351623535,2.27470779418945,2.27470326423645,2.27469849586487,2.2746946811676,2.27468919754028,2.2746844291687,2.27468085289001,2.27467608451843,2.27467060089111,2.27466583251953,2.27466130256653,2.27465486526489,2.27465295791626,2.27464652061462,2.27464199066162,2.27463722229004,2.27463173866272,2.27462720870972,2.27462339401245,2.27461886405945,2.27461314201355,2.27460956573486,2.27460408210754,2.27459955215454,2.27459478378296,2.27459049224854,2.27458500862122,2.27458119392395,2.27457571029663,2.27457022666931,2.27456665039062,2.27456212043762,2.27455759048462,2.2745521068573,2.2745475769043,2.27454304695129,2.27453947067261,2.27453303337097,2.27452850341797,2.27452492713928,2.27451848983765,2.27451515197754,2.27451038360596,2.27450609207153,2.27450060844421,2.27449607849121,2.27449083328247,2.27448701858521,2.27448177337646,2.27447628974915,2.27447271347046,2.27446818351746,2.27446389198303,2.27445840835571,2.27445411682129,2.27444863319397,2.27444529533386,2.27443885803223,2.2744345664978,2.27443099021912,2.27442574501038,2.27442121505737,2.27441573143005,2.27441143989563,2.27440524101257,2.27440357208252,2.27439737319946,2.27439188957214,2.27438735961914,2.27438235282898,2.27437782287598,2.27437424659729,2.27436923980713,2.27436304092407,2.27435946464539,2.27435517311096,2.27434992790222,2.27434539794922,2.27434015274048,2.27433586120605,2.27433228492737,2.27432703971863,2.27432107925415,2.27431750297546,2.27431321144104,2.2743079662323,2.27430272102356,2.27429842948914,2.27429223060608,2.27428889274597,2.27428364753723,2.27428030967712,2.27427506446838,2.27426886558533,2.27426552772522,2.2742612361908,2.27425599098206,2.27425074577332,2.27424645423889,2.27424144744873,2.27423810958862,2.27423191070557,2.27422690391541,2.2742235660553,2.27421832084656,2.27421402931213,2.27420878410339,2.27420473098755,2.27419853210449,2.27419447898865,2.27419018745422,2.27418494224548,2.27418184280396,2.2741756439209,2.27417063713074,2.27416729927063,2.27416229248047,2.27415609359741,2.2741527557373,2.27414774894714,2.27414274215698,2.27413773536682,2.2741334438324,2.27412843704224,2.27412509918213,2.27412009239197,2.27411413192749,2.27411079406738,2.27410387992859,2.27409982681274,2.2740957736969,2.27409148216248,2.274085521698,2.27408146858215,2.27407646179199,2.27407312393188,2.27406811714172,2.27406215667725,2.27405905723572,2.27405405044556,2.2740490436554,2.27404379844666,2.27403903007507,2.27403497695923,2.27403092384338,2.27402591705322,2.27401995658875,2.27401661872864,2.27401089668274,2.27400588989258,2.27400183677673,2.27399778366089,2.27399086952209,2.27398777008057,2.27398300170898,2.27397799491882,2.27397489547729,2.2739679813385,2.27396392822266,2.27396011352539,2.27395510673523
2.26106357574463,2.26105999946594,2.26105451583862,2.26105093955994,2.2610456943512,2.26104187965393,2.26103568077087,2.26103210449219,2.2610285282135,2.26102232933044,2.26101970672607,2.26101326942444,2.26100897789001,2.26100444793701,2.26099991798401,2.26099467277527,2.26099014282227,2.26098561286926,2.26097941398621,2.26097583770752,2.26097059249878,2.26096606254578,2.26096177101135,2.26095747947693,2.26095104217529,2.26094841957092,2.26094222068787,2.26093792915344,2.26093435287476,2.26092910766602,2.26092457771301,2.26092028617859,2.26091599464417,2.26090979576111,2.26090621948242,2.26090097427368,2.26089668273926,2.26089215278625,2.26088786125183,2.26088356971741,2.26087832450867,2.26087403297424,2.2608687877655,2.26086521148682,2.26085925102234,2.26085495948792,2.26085042953491,2.26084613800049,2.26084184646606,2.26083755493164,2.26083135604858,2.26082801818848,2.26082277297974,2.260817527771,2.26081323623657,2.26080799102783,2.26080274581909,2.26079845428467,2.26079440116882,2.2607901096344,2.26078486442566,2.26078057289124,2.2607753276825,2.26077198982239,2.26076602935791,2.26076173782349,2.26075744628906,2.2607524394989,2.26074719429016,2.26074385643005,2.26073980331421,2.26073360443115,2.26073026657104,2.26072430610657,2.26072025299072,2.2607159614563,2.26071166992188,2.2607057094574,2.26070237159729,2.26069641113281,2.26069211959839,2.26068782806396,2.2606828212738,2.26067781448364,2.26067447662354,2.26066851615906,2.26066446304321,2.26065945625305,2.26065421104431,2.26064920425415,2.26064586639404,2.26064014434814,2.26063680648804,2.26063179969788,2.26062679290771,2.26062250137329,2.26061844825745,2.26061248779297,2.26060938835144,2.26060342788696,2.26059937477112,2.26059603691101,2.26059007644653,2.26058602333069,2.26058101654053,2.26057696342468,2.26057100296021,2.26056790351868,2.2605619430542,2.26055812835693,2.26055288314819,2.26054883003235,2.26054310798645,2.26054000854492,2.26053404808044,2.26052808761597,2.26052498817444,2.26051926612854,2.2605152130127,2.26051020622253,2.26050615310669,2.26050043106079,2.26049733161926,2.2604923248291,2.26048636436462,2.26048350334167,2.2604775428772,2.26047348976135,2.26046872138977,2.26046466827393,2.26045894622803,2.2604558467865,2.26045107841492,2.26044511795044,2.26044225692749,2.26043629646301,2.26043248176575,2.26042747497559,2.260422706604,2.26041865348816,2.26041293144226,2.26040816307068,2.26040410995483,2.26039934158325,2.26039361953735,2.26039052009583,2.26038479804993,2.26038002967834,2.2603759765625,2.26037120819092,2.26036548614502,2.26036262512207,2.26035690307617,2.26035213470459,2.26034903526306,2.26034331321716,2.26033878326416,2.26033473014832,2.26032996177673,2.26032423973083,2.26032137870789,2.26031565666199,2.26031088829041,2.26030611991882,2.26030230522156,2.26029658317566,2.26029276847839,2.2602870464325,2.26028323173523,2.26027846336365,2.26027274131775,2.26026821136475,2.26026344299316,2.2602596282959,2.26025485992432,2.26025009155273,2.26024556159973,2.26023983955383,2.26023697853088,2.26023125648499,2.26022672653198,2.2602219581604,2.26021838188171,2.26021361351013,2.26020884513855,2.26020431518555,2.26019954681396,2.26019597053528,2.26019024848938,2.2601854801178,2.26018095016479,2.26017546653748,2.26017165184021,2.26016616821289,2.26016163825989,2.26015686988831,2.26015305519104,2.26014757156372,2.26014399528503,2.26013827323914,2.26013374328613,2.26012921333313,2.26012468338013,2.26011896133423,2.26011633872986,2.26011180877686,2.26010632514954,2.26010251045227,2.26009702682495,2.26009249687195,2.26008796691895,2.26008343696594,2.26007795333862,2.26007437705994,2.26006889343262,2.2600634098053,2.26005959510803,2.26005434989929,2.26004958152771,2.26004528999329,2.26004076004028,2.26003527641296,2.26003170013428,2.26002621650696,2.26002168655396,2.26001906394958,2.26001262664795,2.26000905036926,2.26000380516052,2.25999999046326,2.25999474525452,2.25999116897583,2.25998497009277,2.25998210906982,2.25997591018677,2.25997138023376,2.25996685028076,2.25996255874634,2.25995707511902,2.25995254516602,2.25994825363159,2.25994277000427,2.25993943214417,2.25993299484253,2.25992965698242,2.2599241733551,2.25991988182068,2.25991535186768,2.25991106033325,2.25990676879883,2.25990128517151,2.25989770889282,2.25989246368408,2.25988817214966,2.25988364219666,2.25987935066223,2.25987315177917,2.25986957550049,2.25986433029175,2.25986003875732,2.25985550880432,2.25984930992126,2.25984501838684,2.25984072685242,2.25983643531799,2.25983023643494,2.25982761383057,2.25982332229614,2.25981712341309,2.25981378555298,2.25980854034424,2.25980424880981,2.25979900360107,2.25979471206665,2.25979042053223,2.2597861289978,2.25978088378906,2.25977754592896,2.2597713470459,2.25976729393005,2.25976276397705,2.25975847244263,2.25975251197815,2.25974822044373,2.2597439289093,2.25973773002625,2.25973439216614,2.2597291469574,2.25972414016724,2.25972175598145,2.25971555709839,2.25971150398254,2.2597062587738,2.25970196723938,2.25969696044922,2.25969362258911,2.25968766212463,2.25968337059021,2.25967907905579,2.25967407226562,2.25966882705688,2.25966572761536,2.2596595287323,2.25965452194214,2.25965118408203,2.25964522361755,2.25964117050171,2.25963592529297,2.25963187217712,2.2596275806427,2.25962257385254,2.25961852073669,2.25961327552795,2.25960922241211,2.25960421562195,2.25959992408752,2.25959491729736,2.25959086418152,2.25958585739136,2.25958180427551,2.25957560539246,2.25957155227661,2.25956749916077,2.25956153869629,2.25955843925476,2.25955247879028,2.25954842567444,2.25954341888428
2.2468159198761,2.2468113899231,2.24680685997009,2.24680304527283,2.24679732322693,2.24679183959961,2.24678921699524,2.24678373336792,2.24677801132202,2.24677515029907,2.24677062034607,2.24676513671875,2.24676060676575,2.24675679206848,2.24675130844116,2.24674677848816,2.24674320220947,2.24673771858215,2.24673295021057,2.24672842025757,2.24672484397888,2.24672031402588,2.24671483039856,2.24671030044556,2.24670672416687,2.24670124053955,2.24669647216797,2.24669289588928,2.24668741226196,2.24668288230896,2.24667763710022,2.24667382240295,2.24666953086853,2.24666404724121,2.24665856361389,2.24665594100952,2.2466504573822,2.24664497375488,2.24664235115051,2.24663686752319,2.24663162231445,2.24662709236145,2.24662351608276,2.24661827087402,2.24661350250244,2.2466082572937,2.24660468101501,2.24660038948059,2.24659490585327,2.24659156799316,2.24658679962158,2.24658155441284,2.2465763092041,2.24657368659973,2.24656820297241,2.24656295776367,2.24655842781067,2.24655413627625,2.2465488910675,2.24654531478882,2.24654078483582,2.24653553962708,2.24653124809265,2.24652576446533,2.24652338027954,2.24651789665222,2.24651265144348,2.24650835990906,2.24650382995605,2.24649858474731,2.24649429321289,2.2464907169342,2.24648571014404,2.24648118019104,2.2464759349823,2.24647164344788,2.24646735191345,2.24646210670471,2.24645853042603,2.2464542388916,2.24644899368286,2.24644303321838,2.24644041061401,2.24643516540527,2.24642992019653,2.24642562866211,2.24642133712769,2.24641609191895,2.24641180038452,2.2464075088501,2.24640250205994,2.24639797210693,2.24639296531677,2.24638962745667,2.24638342857361,2.24637913703918,2.24637413024902,2.24637150764465,2.24636459350586,2.24636030197144,2.24635791778564,2.24635100364685,2.24634766578674,2.246342420578,2.2463390827179,2.2463321685791,2.24632978439331,2.24632382392883,2.24631857872009,2.2463161945343,2.24631023406982,2.2463059425354,2.24630093574524,2.24629688262939,2.24629259109497,2.24628734588623,2.24628233909607,2.24627900123596,2.2462739944458,2.24626874923706,2.24626564979553,2.24626040458679,2.24625468254089,2.24625039100647,2.24624729156494,2.24624133110046,2.24623703956604,2.24623203277588,2.24622797966003,2.24622368812561,2.24621868133545,2.2462146282196,2.24621033668518,2.24620461463928,2.24619960784912,2.24619626998901,2.24619126319885,2.24618625640869,2.24618124961853,2.246178150177,2.24617218971252,2.24616813659668,2.24616408348083,2.24615907669067,2.24615502357483,2.24614906311035,2.24614500999451,2.24614095687866,2.24613618850708,2.2461302280426,2.24612784385681,2.24612212181091,2.24611711502075,2.24611401557922,2.24610900878906,2.2461040019989,2.24609923362732,2.24609518051147,2.24609112739563,2.24608540534973,2.24608039855957,2.24607729911804,2.24607253074646,2.24606657028198,2.24606370925903,2.24605774879456,2.24605369567871,2.24604892730713,2.24604392051697,2.24603819847107,2.24603605270386,2.24603033065796,2.2460253238678,2.24602246284485,2.24601674079895,2.24601173400879,2.24600696563721,2.24600315093994,2.24599814414978,2.2459933757782,2.24598836898804,2.24598455429077,2.24598050117493,2.24597477912903,2.24597096443176,2.2459671497345,2.2459614276886,2.24595665931702,2.24595355987549,2.24594783782959,2.24594306945801,2.24593830108643,2.24593448638916,2.24592876434326,2.245924949646,2.24592113494873,2.24591541290283,2.24591135978699,2.24590587615967,2.2459020614624,2.24589800834656,2.24589228630066,2.24588847160339,2.24588489532471,2.24587917327881,2.24587440490723,2.24587059020996,2.24586415290833,2.2458610534668,2.24585628509521,2.2458508014679,2.24584603309631,2.24584221839905,2.24583745002747,2.24583292007446,2.2458291053772,2.2458233833313,2.24581980705261,2.24581408500671,2.24581027030945,2.24580574035645,2.24580097198486,2.24579548835754,2.24579262733459,2.24578714370728,2.24578142166138,2.24577856063843,2.24577403068542,2.24576854705811,2.24576377868652,2.24576020240784,2.24575448036194,2.24575066566467,2.24574518203735,2.24574160575867,2.24573683738708,2.24573135375977,2.24572777748108,2.24572229385376,2.24571847915649,2.24571299552917,2.24570846557617,2.24570369720459,2.24569916725159,2.2456955909729,2.24569010734558,2.24568748474121,2.24568200111389,2.24567651748657,2.24567174911499,2.24566841125488,2.24566292762756,2.2456591129303,2.24565362930298,2.24564933776855,2.24564552307129,2.24564003944397,2.24563646316528,2.24563193321228,2.24562644958496,2.24562120437622,2.24561834335327,2.24561309814453,2.24560761451721,2.24560403823853,2.24559950828552,2.2455940246582,2.24558973312378,2.24558615684509,2.24557971954346,2.24557614326477,2.24557185173035,2.24556636810303,2.24556183815002,2.2455575466156,2.2455530166626,2.24554848670959,2.24554419517517,2.24553871154785,2.24553513526917,2.24552989006042,2.24552536010742,2.245521068573,2.24551558494568,2.24551033973694,2.24550771713257,2.24550247192383,2.24549698829651,2.24549460411072,2.24548935890198,2.24548482894897,2.24547958374023,2.24547624588013,2.24546980857849,2.24546647071838,2.24546098709106,2.24545669555664,2.24545240402222,2.24544715881348,2.24544286727905,2.24543738365173,2.24543404579163,2.2454297542572,2.24542450904846,2.24541926383972,2.24541592597961,2.24541068077087,2.24540543556213,2.24540281295776,2.24539756774902,2.24539232254028,2.24538803100586,2.24538373947144,2.24537754058838,2.24537420272827,2.24536919593811,2.24536371231079,2.245361328125,2.24535536766052,2.24535012245178,2.24534583091736,2.24534249305725,2.24533724784851,2.24533295631409,2.24532771110535,2.2453236579895,2.24531936645508,2.24531412124634
2.23274493217468,2.23274278640747,2.23273611068726,2.23273324966431,2.23272919654846,2.2327241897583,2.23271870613098,2.23271465301514,2.23270988464355,2.23270511627197,2.23270106315613,2.23269629478455,2.23269152641296,2.23268747329712,2.23268270492554,2.23267793655396,2.23267412185669,2.23266839981079,2.23266363143921,2.23265957832336,2.23265504837036,2.2326500415802,2.23264622688293,2.23264145851135,2.23263669013977,2.23263192176819,2.23262906074524,2.23262238502502,2.23261952400208,2.23261380195618,2.23261022567749,2.23260426521301,2.23260140419006,2.23259496688843,2.23259210586548,2.2325873374939,2.23258352279663,2.23257875442505,2.23257398605347,2.2325701713562,2.23256468772888,2.2325599193573,2.23255610466003,2.23255157470703,2.23254585266113,2.23254203796387,2.23253750801086,2.23253273963928,2.2325279712677,2.2325234413147,2.23251891136169,2.23251509666443,2.23250937461853,2.23250484466553,2.23250102996826,2.23249650001526,2.23249077796936,2.23248887062073,2.23248243331909,2.23247885704041,2.23247337341309,2.23246955871582,2.2324640750885,2.23246121406555,2.23245477676392,2.23245120048523,2.23244738578796,2.23244285583496,2.23243737220764,2.23243355751038,2.23242902755737,2.23242378234863,2.23241996765137,2.23241543769836,2.23240995407104,2.23240613937378,2.23240089416504,2.23239612579346,2.23239254951477,2.23238706588745,2.23238253593445,2.23237895965576,2.23237347602844,2.23236966133118,2.23236441612244,2.23235988616943,2.23235630989075,2.23235082626343,2.23234724998474,2.23234176635742,2.23233819007874,2.23233270645142,2.23233032226562,2.23232388496399,2.2323203086853,2.23231482505798,2.2323112487793,2.23230600357056,2.23230242729187,2.23229789733887,2.23229241371155,2.23228907585144,2.23228359222412,2.23227906227112,2.23227453231812,2.23227024078369,2.23226499557495,2.23226141929626,2.23225593566895,2.23225164413452,2.23224711418152,2.23224282264709,2.23223733901978,2.23223400115967,2.23222851753235,2.23222422599792,2.23221969604492,2.2322154045105,2.23221015930176,2.23220753669739,2.23220133781433,2.23219776153564,2.2321925163269,2.2321891784668,2.23218297958374,2.23217844963074,2.23217415809631,2.23216986656189,2.2321662902832,2.23216009140015,2.23215770721436,2.2321515083313,2.23214817047119,2.23214268684387,2.23213863372803,2.23213243484497,2.2321298122406,2.23212361335754,2.23212027549744,2.23211598396301,2.23211169242859,2.23210644721985,2.23210215568542,2.232097864151,2.23209285736084,2.23208832740784,2.23208427429199,2.23207902908325,2.23207473754883,2.2320704460144,2.23206520080566,2.23206090927124,2.2320568561554,2.23205161094666,2.23204731941223,2.23204302787781,2.23203802108765,2.23203372955322,2.2320294380188,2.23202419281006,2.23202013969421,2.23201680183411,2.23201060295105,2.23200750350952,2.23200130462646,2.23199820518494,2.2319929599762,2.23198890686035,2.23198270797729,2.23197937011719,2.23197531700134,2.23196935653687,2.23196697235107,2.23196005821228,2.23195767402649,2.23195171356201,2.2319483757019,2.23194241523743,2.2319393157959,2.23193311691284,2.23193097114563,2.23192596435547,2.23192095756531,2.23191666603088,2.23191165924072,2.23190665245056,2.23190331459045,2.23189830780029,2.23189330101013,2.23188924789429,2.23188424110413,2.23187923431396,2.23187589645386,2.2318708896637,2.23186588287354,2.23186182975769,2.23185682296753,2.23185181617737,2.23184776306152,2.23184299468994,2.2318389415741,2.23183465003967,2.23182964324951,2.23182487487793,2.23182082176208,2.23181581497192,2.23181080818176,2.23180675506592,2.23180174827576,2.23179697990417,2.23179388046265,2.23178887367249,2.23178482055664,2.23177981376648,2.23177599906921,2.23177003860474,2.23176717758179,2.23176121711731,2.2317590713501,2.2317521572113,2.23174834251404,2.23174333572388,2.23174023628235,2.23173546791077,2.23173141479492,2.23172664642334,2.23172163963318,2.23171758651733,2.23171091079712,2.23170804977417,2.23170208930969,2.23169922828674,2.23169422149658,2.23169040679932,2.23168563842773,2.23167991638184,2.23167681694031,2.23167109489441,2.23166632652283,2.23166227340698,2.2316575050354,2.23165273666382,2.23164892196655,2.23164391517639,2.23163914680481,2.23163533210754,2.23163056373596,2.23162579536438,2.23162174224854,2.23161697387695,2.23161149024963,2.23160743713379,2.23160266876221,2.23159790039062,2.23159408569336,2.23158931732178,2.2315845489502,2.23158073425293,2.23157596588135,2.23157048225403,2.23156642913818,2.2315616607666,2.2315571308136,2.23155426979065,2.23154854774475,2.2315456867218,2.23153901100159,2.23153614997864,2.23153066635132,2.23152685165405,2.23152112960815,2.23151731491089,2.23151183128357,2.23150706291199,2.23150515556335,2.23149847984314,2.23149490356445,2.23148918151855,2.23148655891418,2.23147988319397,2.2314772605896,2.2314715385437,2.23146772384644,2.23146224021912,2.23145866394043,2.23145389556885,2.23145008087158,2.23144555091858,2.23144006729126,2.23143625259399,2.23142981529236,2.23142623901367,2.23142147064209,2.2314178943634,2.23141121864319,2.23140859603882,2.23140406608582,2.23139953613281,2.23139572143555,2.23139023780823,2.23138570785522,2.23138189315796,2.23137640953064,2.23137187957764,2.23136830329895,2.23136281967163,2.23135828971863,2.23135447502136,2.23134922981262,2.23134541511536,2.23134088516235,2.23133563995361,2.23133182525635,2.23132729530334,2.23132181167603,2.23131823539734,2.23131275177002,2.23130822181702,2.23130488395691,2.23129940032959,2.23129487037659,2.2312912940979,2.23128581047058,2.23128128051758,2.23127675056458,2.23127222061157,2.23126697540283,2.23126339912415
2.21885108947754,2.21884608268738,2.21884179115295,2.21883845329285,2.21883249282837,2.21882915496826,2.21882390975952,2.21881985664368,2.21881651878357,2.21881127357483,2.21880531311035,2.21880197525024,2.2187979221344,2.21879291534424,2.21878957748413,2.21878337860107,2.21877932548523,2.21877503395081,2.21877098083496,2.21876502037048,2.21876168251038,2.21875667572021,2.21875262260437,2.21874928474426,2.21874332427979,2.21873998641968,2.21873497962952,2.21872997283936,2.21872401237488,2.2187225818634,2.21871662139893,2.21871161460876,2.21870827674866,2.21870350837708,2.21869921684265,2.21869421005249,2.21868920326233,2.21868515014648,2.21868205070496,2.21867609024048,2.21867108345032,2.21866798400879,2.21866297721863,2.21865701675415,2.21865391731262,2.21864891052246,2.21864485740662,2.21864080429077,2.21863484382629,2.21863174438477,2.2186267375946,2.21862268447876,2.21861791610718,2.21861457824707,2.21860980987549,2.21860480308533,2.21860074996948,2.21859574317932,2.21859192848206,2.21858596801758,2.21858191490173,2.21857810020447,2.21857404708862,2.21856808662415,2.21856427192688,2.21855926513672,2.21855521202087,2.21855139732361,2.21854543685913,2.21854162216187,2.21853756904602,2.21853280067444,2.21852707862854,2.21852493286133,2.21851897239685,2.21851420402527,2.21851110458374,2.21850633621216,2.21850228309631,2.21849751472473,2.21849274635315,2.21848797798157,2.21848487854004,2.21847820281982,2.21847438812256,2.21847033500671,2.21846556663513,2.21846175193787,2.21845698356628,2.21845197677612,2.21844720840454,2.21844434738159,2.21843767166138,2.21843385696411,2.21842980384827,2.21842503547668,2.21842122077942,2.2184157371521,2.21841263771057,2.21840786933899,2.21840310096741,2.21839833259583,2.21839547157288,2.21838974952698,2.2183849811554,2.21838116645813,2.21837663650513,2.21837282180786,2.21836686134338,2.21836304664612,2.21835851669312,2.21835470199585,2.21834897994995,2.21834444999695,2.21834063529968,2.2183358669281,2.21833205223083,2.21832633018494,2.21832275390625,2.21831798553467,2.2183141708374,2.21830868721008,2.2183039188385,2.21830034255981,2.21829557418823,2.21828985214233,2.21828603744507,2.2182834148407,2.21827697753906,2.21827411651611,2.21826934814453,2.21826481819153,2.21825933456421,2.21825551986694,2.21825098991394,2.21824717521667,2.21824073791504,2.21823716163635,2.21823334693909,2.21822881698608,2.21822428703308,2.2182195186615,2.2182149887085,2.21821022033691,2.21820664405823,2.21820020675659,2.21819758415222,2.21819281578064,2.21818852424622,2.21818470954895,2.21817827224731,2.21817374229431,2.21817111968994,2.21816658973694,2.2181601524353,2.21815657615662,2.21815180778503,2.21814751625061,2.21814393997192,2.21813821792603,2.21813488006592,2.21813011169434,2.21812582015991,2.21811938285828,2.21811747550964,2.21811127662659,2.21810674667358,2.21810221672058,2.21809864044189,2.21809434890747,2.21808981895447,2.21808528900146,2.21808075904846,2.21807718276978,2.21807098388672,2.21806645393372,2.21806287765503,2.21805834770203,2.21805310249329,2.2180495262146,2.2180449962616,2.21803975105286,2.21803617477417,2.21803092956543,2.21802639961243,2.21802282333374,2.21801853179932,2.21801233291626,2.21800875663757,2.21800422668457,2.21800088882446,2.21799659729004,2.2179901599884,2.21798658370972,2.21798229217529,2.21797800064087,2.21797251701355,2.21796822547913,2.2179639339447,2.21796035766602,2.21795606613159,2.21794986724854,2.21794629096985,2.21794199943542,2.21793675422668,2.21793246269226,2.21792912483215,2.2179229259491,2.21791958808899,2.21791410446167,2.21791076660156,2.21790742874146,2.2179012298584,2.21789693832397,2.21789336204529,2.21788835525513,2.21788311004639,2.21787977218628,2.21787452697754,2.21787023544312,2.21786689758301,2.21786069869995,2.21785640716553,2.21785306930542,2.21784782409668,2.21784281730652,2.21783924102783,2.21783423423767,2.21782994270325,2.21782469749451,2.21782040596008,2.21781635284424,2.21781206130981,2.21780776977539,2.21780180931091,2.21779847145081,2.21779417991638,2.21779084205627,2.2177848815918,2.21777963638306,2.21777629852295,2.21777200698853,2.21776723861694,2.21776294708252,2.21775770187378,2.21775364875793,2.21775031089783,2.21774411201477,2.21773910522461,2.21773600578308,2.21773171424866,2.2177267074585,2.21772241592407,2.21771740913391,2.21771335601807,2.21771001815796,2.21770405769348,2.21769905090332,2.21769571304321,2.21769165992737,2.21768569946289,2.21768140792847,2.21767735481262,2.21767258644104,2.21766924858093,2.21766328811646,2.21765923500061,2.21765518188477,2.21765089035034,2.21764492988586,2.21764183044434,2.21763682365417,2.21763277053833,2.21762871742249,2.21762275695801,2.21761965751648,2.21761465072632,2.21761059761047,2.217604637146,2.21760249137878,2.21759653091431,2.21759343147278,2.21758842468262,2.21758437156677,2.21758031845093,2.21757459640503,2.21757054328918,2.21756649017334,2.2175624370575,2.2175567150116,2.21755266189575,2.21754860877991,2.21754360198975,2.21754050254822,2.217533826828,2.21752977371216,2.21752595901489,2.21752190589905,2.21751618385315,2.2175121307373,2.21750807762146,2.21750330924988,2.21749830245972,2.21749353408813,2.21748948097229,2.21748566627502,2.21748161315918,2.21747589111328,2.21747183799744,2.21746706962585,2.21746325492859,2.21745824813843,2.21745347976685,2.217449426651,2.21744561195374,2.21744084358215,2.21743512153625,2.21743202209473,2.21742725372314,2.21742248535156,2.2174174785614,2.21741366386414,2.21740889549255,2.21740508079529,2.21740126609802,2.21739625930786,2.21739149093628,2.2173867225647
2.20512914657593,2.20512461662292,2.20511984825134,2.20511436462402,2.20511174201965,2.20510601997375,2.20510149002075,2.20509696006775,2.20509243011475,2.20508694648743,2.20508408546448,2.20507955551147,2.20507407188416,2.20507144927979,2.20506596565247,2.20506143569946,2.20505690574646,2.20505332946777,2.20504879951477,2.20504403114319,2.20503973960876,2.20503425598145,2.2050313949585,2.20502686500549,2.20502161979675,2.20501804351807,2.20501255989075,2.2050096988678,2.20500540733337,2.20499992370605,2.20499634742737,2.20499086380005,2.20498728752136,2.20498371124268,2.20497846603394,2.20497393608093,2.20496940612793,2.20496511459351,2.20495963096619,2.20495700836182,2.20495080947876,2.20494723320007,2.20494365692139,2.20493841171265,2.20493388175964,2.20492935180664,2.20492506027222,2.20491981506348,2.20491719245911,2.20491075515747,2.20490741729736,2.20490193367004,2.20489859580994,2.20489406585693,2.20488953590393,2.20488548278809,2.20487999916077,2.20487642288208,2.20487117767334,2.20486688613892,2.20486235618591,2.20485806465149,2.20485281944275,2.20484948158264,2.20484519004822,2.2048397064209,2.20483636856079,2.20483112335205,2.20482683181763,2.20482230186462,2.2048180103302,2.20481371879578,2.20480942726135,2.20480513572693,2.2048008441925,2.20479655265808,2.20479130744934,2.20478773117065,2.20478248596191,2.20477819442749,2.20477485656738,2.20476961135864,2.2047655582428,2.20476102828979,2.20475697517395,2.20475268363953,2.2047483921051,2.20474410057068,2.20473790168762,2.20473551750183,2.20472931861877,2.20472526550293,2.20472264289856,2.20471668243408,2.20471239089966,2.20470809936523,2.20470404624939,2.20469975471497,2.20469546318054,2.2046914100647,2.20468521118164,2.20468282699585,2.20467686653137,2.20467257499695,2.20466923713684,2.20466423034668,2.20466017723083,2.20465493202209,2.20465159416199,2.20464563369751,2.2046422958374,2.20463728904724,2.20463299751282,2.20462799072266,2.20462393760681,2.20461988449097,2.20461535453796,2.20461130142212,2.20460629463196,2.20460224151611,2.20459699630737,2.20459389686584,2.20458793640137,2.20458388328552,2.2045795917511,2.20457553863525,2.20457148551941,2.20456647872925,2.2045624256134,2.20455718040466,2.20455408096313,2.20454812049866,2.20454406738281,2.20454001426697,2.20453572273254,2.20453190803528,2.20452690124512,2.20452284812927,2.20451688766479,2.20451354980469,2.20450878143311,2.20450472831726,2.2044997215271,2.20449566841125,2.20448970794678,2.20448660850525,2.2044825553894,2.20447754859924,2.20447444915771,2.20446872711182,2.20446467399597,2.20445966720581,2.20445561408997,2.20444989204407,2.20444679260254,2.20444178581238,2.20443773269653,2.20443391799927,2.20442891120911,2.20442485809326,2.2044198513031,2.20441603660583,2.20441102981567,2.20440721511841,2.20440125465393,2.20439839363098,2.20439434051514,2.20438861846924,2.20438551902771,2.20437979698181,2.20437574386597,2.20437169075012,2.20436692237854,2.20436310768127,2.20435833930969,2.20435428619385,2.20434856414795,2.20434546470642,2.20434069633484,2.20433592796326,2.20433187484741,2.20432710647583,2.20432329177856,2.20431852340698,2.20431447029114,2.20430874824524,2.20430588722229,2.20430016517639,2.20429635047913,2.2042932510376,2.2042875289917,2.20428371429443,2.20427894592285,2.20427513122559,2.20426940917969,2.20426654815674,2.20426082611084,2.20425605773926,2.20425319671631,2.20424747467041,2.20424365997314,2.20423889160156,2.2042350769043,2.2042293548584,2.20422649383545,2.20422196388245,2.20421624183655,2.2042133808136,2.2042076587677,2.20420479774475,2.20419907569885,2.20419526100159,2.20419073104858,2.20418691635132,2.20418238639832,2.20417761802673,2.20417380332947,2.20416831970215,2.20416522026062,2.2041597366333,2.20415496826172,2.20415043830872,2.20414662361145,2.20414304733276,2.20413827896118,2.20413374900818,2.20412802696228,2.20412516593933,2.20411968231201,2.20411515235901,2.20411133766174,2.20410680770874,2.20410299301147,2.20409846305847,2.20409393310547,2.20408821105957,2.2040855884552,2.2040798664093,2.20407557487488,2.2040708065033,2.20406723022461,2.20406270027161,2.20405793190002,2.20405435562134,2.20404887199402,2.20404529571533,2.20403957366943,2.20403599739075,2.20403146743774,2.20402693748474,2.20402336120605,2.20401883125305,2.20401430130005,2.20400953292847,2.20400595664978,2.20400071144104,2.20399689674377,2.20399165153503,2.20398712158203,2.20398259162903,2.20397901535034,2.20397448539734,2.20396995544434,2.20396637916565,2.20396089553833,2.20395731925964,2.20395183563232,2.2039475440979,2.2039430141449,2.20393943786621,2.20393300056458,2.20393037796021,2.20392608642578,2.20392060279846,2.20391798019409,2.20391178131104,2.20390820503235,2.20390367507935,2.20389938354492,2.2038938999176,2.20389032363892,2.20388698577881,2.20388054847717,2.20387816429138,2.20387268066406,2.20386838912964,2.20386385917664,2.20385956764221,2.20385408401489,2.20385074615479,2.20384550094604,2.20384097099304,2.20383667945862,2.20383238792419,2.20382881164551,2.2038242816925,2.20381999015808,2.20381546020508,2.20381116867065,2.20380592346191,2.20380258560181,2.20379710197449,2.20379304885864,2.20378851890564,2.20378422737122,2.20377993583679,2.20377564430237,2.20377135276794,2.2037661075592,2.20376253128052,2.20375728607178,2.20375323295593,2.20374870300293,2.20374441146851,2.20373916625977,2.20373582839966,2.20373058319092,2.20372629165649,2.20372295379639,2.20371770858765,2.2037136554718,2.2037091255188,2.20370507240295,2.2036988735199,2.20369648933411,2.20369029045105,2.20368623733521,2.2036817073822
2.19157409667969,2.19157075881958,2.19156670570374,2.19156074523926,2.1915557384491,2.19155335426331,2.19154834747314,2.1915442943573,2.19154024124146,2.19153523445129,2.19153118133545,2.19152688980103,2.19152212142944,2.19151616096497,2.19151377677917,2.19150876998901,2.19150471687317,2.19150066375732,2.19149565696716,2.19149160385132,2.19148755073547,2.19148182868958,2.19147682189941,2.19147443771362,2.19146871566772,2.1914656162262,2.19146060943604,2.19145560264587,2.19145059585571,2.19144773483276,2.19144439697266,2.19143867492676,2.19143462181091,2.19142961502075,2.19142580032349,2.19142174720764,2.19141674041748,2.19141101837158,2.19140887260437,2.19140291213989,2.19139909744263,2.19139504432678,2.1913902759552,2.19138717651367,2.19138216972351,2.19137740135193,2.1913743019104,2.19136929512024,2.19136357307434,2.19136047363281,2.19135570526123,2.19135093688965,2.19134783744812,2.19134306907654,2.19133901596069,2.19133424758911,2.19132947921753,2.19132447242737,2.19132161140442,2.19131684303284,2.19131112098694,2.19130802154541,2.19130325317383,2.19129943847656,2.19129538536072,2.19128966331482,2.19128489494324,2.19128203392029,2.19127726554871,2.19127154350281,2.19126749038696,2.1912636756897,2.19125986099243,2.19125604629517,2.19125032424927,2.19124555587769,2.19124269485474,2.19123792648315,2.19123411178589,2.19122934341431,2.19122457504272,2.19122076034546,2.19121599197388,2.19121122360229,2.19120573997498,2.19120359420776,2.19119811058044,2.19119429588318,2.19119048118591,2.19118475914001,2.19118094444275,2.19117712974548,2.19117164611816,2.1911678314209,2.19116401672363,2.19115853309631,2.19115567207336,2.19115090370178,2.19114542007446,2.1911416053772,2.19113779067993,2.19113230705261,2.19112849235535,2.19112491607666,2.19111919403076,2.19111633300781,2.19111180305481,2.19110631942749,2.19110155105591,2.19109797477722,2.19109320640564,2.19108867645264,2.19108390808105,2.19108033180237,2.19107747077942,2.1910719871521,2.19106650352478,2.19106268882751,2.19105911254883,2.19105362892151,2.19104981422424,2.19104433059692,2.19104075431824,2.19103813171387,2.19103264808655,2.19102716445923,2.19102334976196,2.19101977348328,2.19101428985596,2.19101166725159,2.19100618362427,2.19100141525269,2.19099712371826,2.190993309021,2.19098877906799,2.19098424911499,2.19097971916199,2.1909761428833,2.19097256660461,2.19096708297729,2.19096279144287,2.19095730781555,2.19095373153687,2.1909499168396,2.19094443321228,2.19094109535217,2.19093656539917,2.19093298912048,2.19092750549316,2.19092321395874,2.19091868400574,2.19091415405273,2.19091057777405,2.19090533256531,2.19090175628662,2.19089722633362,2.19089365005493,2.19088840484619,2.19088387489319,2.19087862968445,2.19087505340576,2.19087052345276,2.19086623191833,2.19086074829102,2.19085812568665,2.19085383415222,2.1908495426178,2.19084501266479,2.19083976745605,2.19083619117737,2.19083189964294,2.19082641601562,2.19082117080688,2.19081854820251,2.19081330299377,2.19080996513367,2.19080543518066,2.19080018997192,2.19079685211182,2.19079256057739,2.19078707695007,2.19078278541565,2.19077944755554,2.1907742023468,2.1907696723938,2.19076633453369,2.19076108932495,2.19075870513916,2.19075322151184,2.1907479763031,2.19074368476868,2.19074034690857,2.19073510169983,2.19073081016541,2.19072556495667,2.19072127342224,2.19071888923645,2.19071364402771,2.19070839881897,2.19070410728455,2.19070076942444,2.1906955242157,2.19069123268127,2.19068598747253,2.19068288803101,2.190678358078,2.19067430496216,2.19066905975342,2.19066476821899,2.19066166877747,2.19065642356873,2.1906521320343,2.19064688682556,2.19064283370972,2.19063925743103,2.19063520431519,2.19062995910645,2.1906259059906,2.19062256813049,2.19061732292175,2.19061303138733,2.19060802459717,2.19060397148132,2.1905996799469,2.19059562683105,2.19059205055237,2.19058632850647,2.19058299064636,2.19057869911194,2.19057369232178,2.19056868553162,2.19056534767151,2.19056034088135,2.19055509567261,2.19055104255676,2.19054698944092,2.19054198265076,2.19053959846497,2.1905345916748,2.19052934646606,2.19052624702454,2.19052124023438,2.19051623344421,2.19051218032837,2.19050812721252,2.19050288200378,2.19050049781799,2.19049477577209,2.19048976898193,2.19048738479614,2.19048166275024,2.19047665596008,2.19047236442566,2.19046926498413,2.19046330451965,2.19046115875244,2.19045615196228,2.19045042991638,2.19044804573059,2.19044303894043,2.19043731689453,2.19043302536011,2.19043016433716,2.19042420387268,2.19042015075684,2.19041514396667,2.19041109085083,2.19040703773499,2.19040322303772,2.19039916992188,2.19039416313171,2.19039011001587,2.19038605690002,2.19038128852844,2.19037628173828,2.19037318229675,2.19036817550659,2.19036436080933,2.19036030769348,2.1903555393219,2.19035148620605,2.19034743309021,2.19034171104431,2.19033670425415,2.1903338432312,2.19032883644104,2.19032406806946,2.19031929969788,2.19031620025635,2.1903121471405,2.19030833244324,2.19030261039734,2.19029760360718,2.19029474258423,2.19028997421265,2.19028496742249,2.1902801990509,2.19027638435364,2.19027161598206,2.19026851654053,2.19026374816895,2.19025874137878,2.19025588035583,2.19025015830994,2.19024538993835,2.19024133682251,2.19023776054382,2.19023203849792,2.19022798538208,2.1902232170105,2.19021940231323,2.19021654129028,2.1902117729187,2.1902060508728,2.19020223617554,2.19019842147827,2.19019436836243,2.19018888473511,2.19018411636353,2.19018125534058,2.19017744064331,2.1901707649231,2.19016790390015,2.19016313552856,2.19015955924988,2.1901547908783,2.19015002250671,2.19014430046082
