3.13246083259583,3.1324474811554,3.13243389129639,3.13242220878601,3.13241052627563,3.13239860534668,3.13238525390625,3.13237357139587,3.13236021995544,3.13234663009644,3.13233327865601,3.13232159614563,3.13230991363525,3.13229632377625,3.13228297233582,3.13226962089539,3.13225769996643,3.13224601745605,3.13223433494568,3.13222098350525,3.13220572471619,3.13219571113586,3.13218402862549,3.13217067718506,3.13215708732605,3.13214540481567,3.13213205337524,3.13212013244629,3.13210678100586,3.13209342956543,3.13208174705505,3.1320698261261,3.13205647468567,3.13204312324524,3.13203144073486,3.13201951980591,3.13200616836548,3.13199281692505,3.13198256492615,3.13196754455566,3.13195586204529,3.13194251060486,3.1319305896759,3.13191723823547,3.1319055557251,3.13189387321472,3.13187861442566,3.13186693191528,3.13185358047485,3.13184189796448,3.13182997703552,3.13181829452515,3.13180327415466,3.13179135322571,3.13177800178528,3.13176798820496,3.13175463676453,3.13174104690552,3.13172769546509,3.13171601295471,3.13170409202576,3.13169074058533,3.13167905807495,3.13166570663452,3.13165378570557,3.13163876533508,3.13162708282471,3.13161540031433,3.13160181045532,3.13159012794495,3.13157844543457,3.13156509399414,3.13155150413513,3.13153982162476,3.13152813911438,3.13151454925537,3.13150119781494,3.13148784637451,3.13147616386414,3.13146424293518,3.13145089149475,3.13143754005432,3.13142728805542,3.13141393661499,3.13140058517456,3.13138723373413,3.13137531280518,3.13136196136475,3.13135027885437,3.13133859634399,3.13132500648499,3.13131165504456,3.13129830360413,3.13128662109375,3.13127470016479,3.13126301765442,3.13124799728394,3.13123607635498,3.1312243938446,3.13121271133423,3.1311993598938,3.13118743896484,3.13117408752441,3.13116073608398,3.13114881515503,3.13113713264465,3.13112378120422,3.13111042976379,3.13109683990479,3.13108515739441,3.13107347488403,3.1310601234436,3.13104653358459,3.13103485107422,3.13102316856384,3.13100957870483,3.1309962272644,3.13098454475403,3.1309711933136,3.13095927238464,3.13094758987427,3.13093590736389,3.13092088699341,3.1309072971344,3.13089561462402,3.13088393211365,3.13087201118469,3.13086032867432,3.13084530830383,3.1308319568634,3.13082003593445,3.13080835342407,3.1307966709137,3.13078308105469,3.1307680606842,3.13075637817383,3.13074469566345,3.1307327747345,3.13072109222412,3.13070774078369,3.13069438934326,3.13068079948425,3.13066911697388,3.1306574344635,3.13064384460449,3.13063216209412,3.13061881065369,3.13060545921326,3.1305935382843,3.13058185577393,3.1305685043335,3.13055515289307,3.13054323196411,3.13053154945374,3.13051819801331,3.1305046081543,3.13049292564392,3.13047957420349,3.13046789169312,3.13045597076416,3.13044261932373,3.1304292678833,3.13041567802429,3.13040399551392,3.13039231300354,3.13038063049316,3.13036704063416,3.13035368919373,3.1303403377533,3.13032865524292,3.13031673431396,3.13030505180359,3.13029336929321,3.13027811050415,3.13026475906372,3.13025307655334,3.13024139404297,3.13022947311401,3.13021612167358,3.1302011013031,3.13018918037415,3.13017749786377,3.13016581535339,3.13015413284302,3.13014054298401,3.13012552261353,3.13011384010315,3.13010191917419,3.13009023666382,3.13007855415344,3.13006520271301,3.130051612854,3.13003826141357,3.1300265789032,3.13001322746277,3.13000130653381,3.12998962402344,3.12997627258301,3.129962682724,3.12995100021362,3.12993764877319,3.12992596626282,3.12991404533386,3.12990236282349,3.129887342453,3.12987375259399,3.12986207008362,3.12985038757324,3.12983703613281,3.12982678413391,3.12981343269348,3.129798412323,3.12978649139404,3.12977480888367,3.12976312637329,3.12975144386292,3.12973785400391,3.12972283363342,3.12970948219299,3.12969779968262,3.12968587875366,3.12967419624329,3.12966251373291,3.12964725494385,3.12963390350342,3.1296238899231,3.12961053848267,3.12959861755371,3.12958693504333,3.12957358360291,3.12955832481384,3.12954831123352,3.12953495979309,3.12952160835266,3.12950968742371,3.12949800491333,3.1294846534729,3.12947106361389,3.12945938110352,3.12944602966309,3.12943434715271,3.12942242622375
3.10517978668213,3.1051664352417,3.10515284538269,3.10514116287231,3.10512781143188,3.10511589050293,3.10510587692261,3.10509252548218,3.10507893562317,3.10506558418274,3.10505390167236,3.10504198074341,3.10503029823303,3.10501861572266,3.10500502586365,3.10499167442322,3.10497999191284,3.10496807098389,3.10495471954346,3.10494470596313,3.10492944717407,3.1049177646637,3.10490608215332,3.10489249229431,3.10488080978394,3.10486912727356,3.1048572063446,3.10484218597412,3.1048321723938,3.10481858253479,3.10480690002441,3.10479354858398,3.10478162765503,3.10476994514465,3.10475659370422,3.10474467277527,3.10473132133484,3.10471963882446,3.10470771789551,3.10469436645508,3.1046826839447,3.10466909408569,3.10465741157532,3.10464406013489,3.10463380813599,3.10462212562561,3.10460877418518,3.10459518432617,3.1045835018158,3.10457015037537,3.10455822944641,3.10454821586609,3.10453319549561,3.10452127456665,3.10450792312622,3.10449624061584,3.10448431968689,3.10447263717651,3.10446095466614,3.10444569587708,3.1044340133667,3.10442233085632,3.10441040992737,3.10439872741699,3.10438537597656,3.10437178611755,3.10436010360718,3.1043484210968,3.10433483123779,3.10432314872742,3.10431146621704,3.10429787635803,3.10428619384766,3.10427284240723,3.10426092147827,3.1042492389679,3.10423588752747,3.10422563552856,3.10421061515808,3.10419893264771,3.1041853427887,3.10417532920837,3.10416197776794,3.10415005683899,3.10413670539856,3.10412335395813,3.10411310195923,3.1040997505188,3.10408806800842,3.10407614707947,3.10406279563904,3.10404944419861,3.10403752326965,3.10402584075928,3.1040141582489,3.10400056838989,3.10398888587952,3.10397553443909,3.10396361351013,3.10395193099976,3.10393857955933,3.10392665863037,3.10391497612,3.10390162467957,3.10388803482056,3.10387802124023,3.1038646697998,3.1038510799408,3.10384106636047,3.10382604598999,3.10381579399109,3.10380244255066,3.1037905216217,3.10377883911133,3.1037654876709,3.10375356674194,3.10374021530151,3.10372853279114,3.10371494293213,3.10370326042175,3.10369157791138,3.10367965698242,3.10366630554199,3.10365295410156,3.10364103317261,3.10362935066223,3.1036159992218,3.1036057472229,3.10359072685242,3.10357904434204,3.10356712341309,3.10355377197266,3.10354375839233,3.10353016853333,3.10351848602295,3.10350513458252,3.10349154472351,3.10347986221313,3.10346817970276,3.1034562587738,3.10344457626343,3.10342955589294,3.10341763496399,3.10340595245361,3.10339426994324,3.10338234901428,3.10336899757385,3.10335564613342,3.10334205627441,3.10333204269409,3.10332036018372,3.10330677032471,3.10329508781433,3.1032817363739,3.10326981544495,3.10325813293457,3.10324478149414,3.10323286056519,3.10321950912476,3.10320782661438,3.10319590568542,3.103182554245,3.10317087173462,3.10315728187561,3.10314559936523,3.10313534736633,3.10312032699585,3.10310864448547,3.10309529304504,3.10308337211609,3.10307168960571,3.10305976867676,3.10304808616638,3.1030330657959,3.10302114486694,3.10300946235657,3.10299777984619,3.10298585891724,3.10297417640686,3.10295915603638,3.10294723510742,3.10293555259705,3.10292387008667,3.10291194915771,3.10289859771729,3.10288524627686,3.1028733253479,3.10286164283752,3.10284996032715,3.10283637046814,3.10282468795776,3.10281300544739,3.10279941558838,3.102787733078,3.10277438163757,3.10276246070862,3.10275077819824,3.10273742675781,3.1027238368988,3.10271215438843,3.10270047187805,3.1026885509491,3.10267519950867,3.10266327857971,3.10265326499939,3.10263824462891,3.10262632369995,3.10261297225952,3.10260128974915,3.10258936882019,3.10257768630981,3.10256433486938,3.10255074501038,3.1025390625,3.10252737998962,3.10251545906067,3.10250210762024,3.10249042510986,3.10247683525085,3.10246515274048,3.10245180130005,3.10244154930115,3.10242986679077,3.10241651535034,3.10240292549133,3.1023895740509,3.10237956047058,3.10236597061157,3.1023542881012,3.10234260559082,3.10232901573181,3.10231566429138,3.10230398178101,3.10229206085205,3.10228037834167,3.10226678848267,3.10225343704224,3.10224175453186,3.10223150253296,3.10221815109253,3.1022047996521,3.10219287872314
3.07836866378784,3.07835841178894,3.07834339141846,3.07833170890808,3.07831978797913,3.07830810546875,3.07829618453979,3.07828450202942,3.07827115058899,3.07825922966003,3.0782458782196,3.07823395729065,3.07822227478027,3.0782105922699,3.07819700241089,3.07818531990051,3.0781717300415,3.07816171646118,3.07815003395081,3.0781364440918,3.07812476158142,3.07811117172241,3.07809948921204,3.07808780670166,3.07807588577271,3.07806420326233,3.07805228233337,3.07803726196289,3.07802724838257,3.07801532745361,3.07800364494324,3.07799172401428,3.07797837257385,3.07796502113342,3.07795476913452,3.07794141769409,3.07792973518372,3.07791781425476,3.07790446281433,3.07789421081543,3.077880859375,3.07786917686462,3.07785558700562,3.07784390449524,3.07783198356628,3.07782196998596,3.07780694961548,3.07779502868652,3.07778334617615,3.07777142524719,3.07775974273682,3.07774806022644,3.07773447036743,3.07772278785706,3.07770919799805,3.07769751548767,3.07768750190735,3.07767391204834,3.07766222953796,3.07764863967896,3.07763695716858,3.0776252746582,3.07761335372925,3.07760167121887,3.07758975028992,3.07757639884949,3.07756304740906,3.07755279541016,3.07754111289978,3.07752752304077,3.0775158405304,3.07750248908997,3.07749056816101,3.07747888565063,3.07746696472168,3.07745361328125,3.07744193077087,3.07743000984192,3.07741665840149,3.07740497589111,3.07739472389221,3.07738137245178,3.07736945152283,3.07735776901245,3.07734441757202,3.07733249664307,3.07732081413269,3.07730722427368,3.07729554176331,3.0772852897644,3.07727193832397,3.07725858688354,3.07724666595459,3.07723498344421,3.07722473144531,3.07721138000488,3.07719969749451,3.0771861076355,3.07717442512512,3.07716107368469,3.07715082168579,3.07713913917542,3.07712554931641,3.07711219787598,3.0771005153656,3.07708859443665,3.07707691192627,3.07706499099731,3.07705330848694,3.07704138755798,3.07702803611755,3.07701635360718,3.07700443267822,3.07699108123779,3.07697939872742,3.07696747779846,3.07695579528809,3.07694220542908,3.0769305229187,3.07691884040833,3.07690691947937,3.07689523696899,3.07688164710999,3.07686996459961,3.07685828208923,3.07684469223022,3.07683300971985,3.07682275772095,3.07680940628052,3.07679605484009,3.07678413391113,3.07677245140076,3.0767605304718,3.07674884796143,3.07673692703247,3.07672357559204,3.07671189308167,3.07669830322266,3.07668662071228,3.0766749382019,3.07666301727295,3.07664966583252,3.07663774490356,3.07662606239319,3.07661581039429,3.07660245895386,3.07659077644348,3.07657885551453,3.07656383514404,3.07655215263367,3.07654190063477,3.07652854919434,3.07651829719543,3.076504945755,3.07649159431458,3.07648134231567,3.07646799087524,3.07645606994629,3.07644438743591,3.07643103599548,3.07641744613647,3.07640743255615,3.07639384269714,3.07638382911682,3.07637023925781,3.07635855674744,3.07634854316711,3.07633328437805,3.07632160186768,3.07630968093872,3.07629632949829,3.07628464698792,3.07627439498901,3.07626104354858,3.07624912261963,3.07623744010925,3.07622408866882,3.07621383666992,3.07620048522949,3.07618689537048,3.07617521286011,3.07616353034973,3.07615160942078,3.0761399269104,3.07612800598145,3.07611632347107,3.07610297203064,3.07608938217163,3.07607936859131,3.0760657787323,3.07605409622192,3.07604241371155,3.07602882385254,3.07601714134216,3.07600522041321,3.07599353790283,3.07598185539246,3.07596826553345,3.07595491409302,3.07594466209412,3.07593297958374,3.07592129707336,3.07590770721436,3.07589602470398,3.07588410377502,3.07587075233459,3.07585906982422,3.07584714889526,3.07583546638489,3.07582354545593,3.07581186294556,3.07579851150513,3.07578659057617,3.07577323913574,3.07576131820679,3.07574963569641,3.07573938369751,3.07572603225708,3.07571268081665,3.0757007598877,3.07568907737732,3.07567715644836,3.07566547393799,3.07565379142761,3.07563853263855,3.07562851905823,3.07561492919922,3.0756049156189,3.07559323310852,3.07557964324951,3.07556629180908,3.07555437088013,3.07554268836975,3.07553267478943,3.07551908493042,3.07550740242004,3.07549548149109,3.07548046112061,3.07547044754028,3.07545685768127,3.07544684410095,3.075434923172
3.05201721191406,3.05200552940369,3.05199217796326,3.0519802570343,3.05196857452393,3.05195665359497,3.05194497108459,3.05193305015564,3.05191969871521,3.05190777778625,3.05189609527588,3.05188417434692,3.0518741607666,3.05186080932617,3.05184888839722,3.05183553695679,3.05182361602783,3.05181193351746,3.05180168151855,3.05178999900818,3.05177807807922,3.05176472663879,3.05175280570984,3.05174279212952,3.05172944068909,3.05171751976013,3.05170583724976,3.05169224739075,3.05168056488037,3.05166864395142,3.05165696144104,3.05164504051208,3.05163335800171,3.05162143707275,3.05160975456238,3.05159783363342,3.05158615112305,3.05157279968262,3.05156087875366,3.05154919624329,3.05153727531433,3.05152559280396,3.051513671875,3.05150198936462,3.05149006843567,3.05147838592529,3.05146503448486,3.05145311355591,3.05144143104553,3.05142951011658,3.05141615867615,3.05140590667725,3.05139422416687,3.05138063430786,3.05136895179749,3.05135703086853,3.05134701728821,3.05133509635925,3.05132341384888,3.05131006240845,3.05129814147949,3.05128645896912,3.05127453804016,3.05126285552979,3.05125093460083,3.05123591423035,3.05122399330139,3.05121397972107,3.05120205879211,3.05119037628174,3.05117869377136,3.05116677284241,3.05115342140198,3.05114316940308,3.0511314868927,3.05111789703369,3.05110621452332,3.05109429359436,3.05108094215393,3.05106902122498,3.0510573387146,3.05104565620422,3.05103373527527,3.05102205276489,3.05101013183594,3.05099844932556,3.05098652839661,3.05097484588623,3.05096292495728,3.0509512424469,3.05093932151794,3.05092597007751,3.05091404914856,3.05090236663818,3.05089068412781,3.05088043212891,3.05086874961853,3.05085349082947,3.05084180831909,3.05082988739014,3.05081820487976,3.05080795288086,3.05079460144043,3.05078268051147,3.0507709980011,3.05075764656067,3.05074739456177,3.05073571205139,3.05072379112244,3.05071210861206,3.05069851875305,3.05068683624268,3.05067658424377,3.0506649017334,3.05065131187439,3.05063962936401,3.050626039505,3.05061435699463,3.05060267448425,3.0505907535553,3.05057907104492,3.05056715011597,3.05055546760559,3.05054354667664,3.05053186416626,3.0505199432373,3.05050826072693,3.05049633979797,3.0504846572876,3.05047106742859,3.05045938491821,3.05044770240784,3.05043578147888,3.05042409896851,3.0504138469696,3.05040049552917,3.05038857460022,3.05037689208984,3.05036497116089,3.05035328865051,3.05034136772156,3.05032801628113,3.0503146648407,3.05030274391174,3.05029106140137,3.05028080940247,3.05026912689209,3.05025720596313,3.05024385452271,3.05023193359375,3.05022025108337,3.05020833015442,3.05019664764404,3.05018472671509,3.05017137527466,3.0501594543457,3.05014944076538,3.05013751983643,3.05012583732605,3.05011248588562,3.05010056495667,3.05008888244629,3.05007696151733,3.05006527900696,3.050053358078,3.05004167556763,3.05002975463867,3.0500180721283,3.05000615119934,3.04999279975891,3.04998111724854,3.04996919631958,3.04995918273926,3.0499439239502,3.04993224143982,3.04992032051086,3.04990863800049,3.04989671707153,3.04988670349121,3.0498731136322,3.04986143112183,3.04984784126282,3.04983615875244,3.04982590675354,3.04981422424316,3.04980254173279,3.04978895187378,3.0497772693634,3.04976534843445,3.04975366592407,3.04974174499512,3.04973006248474,3.04971647262573,3.04970479011536,3.04969453811646,3.04968285560608,3.04967093467712,3.04965925216675,3.04964590072632,3.04963397979736,3.04962229728699,3.04961037635803,3.04959869384766,3.0495867729187,3.04957509040833,3.04956316947937,3.04955148696899,3.04953789710999,3.04952621459961,3.04951429367065,3.04950261116028,3.0494909286499,3.04947900772095,3.04946732521057,3.04945540428162,3.04944372177124,3.04943180084229,3.04942011833191,3.0494065284729,3.04939484596252,3.04938292503357,3.04937124252319,3.04936099052429,3.04934763908386,3.04933571815491,3.04932236671448,3.0493106842041,3.0493004322052,3.04928874969482,3.04927682876587,3.04926347732544,3.04925155639648,3.04923987388611,3.04922795295715,3.04921627044678,3.04920434951782,3.04919266700745,3.04917907714844,3.04916906356812,3.04915714263916,3.04914379119873,3.04913210868835
3.0261127948761,3.02610087394714,3.02608919143677,3.02607727050781,3.02606534957886,3.02605366706848,3.02604174613953,3.0260317325592,3.02601981163025,3.02600646018982,3.02599453926086,3.02598285675049,3.02597093582153,3.02595925331116,3.02594900131226,3.02593564987183,3.02592372894287,3.0259120464325,3.02590012550354,3.02589011192322,3.02587819099426,3.02586483955383,3.02585291862488,3.0258412361145,3.0258309841156,3.02581763267517,3.02580571174622,3.02579569816589,3.02578210830688,3.02576875686646,3.02575850486755,3.02574849128723,3.02573657035828,3.0257248878479,3.02571129798889,3.02569961547852,3.02568936347961,3.02567744255066,3.02566409111023,3.02565240859985,3.0256404876709,3.025630235672,3.02561688423157,3.02560496330261,3.02559494972229,3.02558302879333,3.02557301521301,3.02555775642395,3.02554607391357,3.02553582191467,3.0255241394043,3.02551221847534,3.02550053596497,3.02548861503601,3.02547693252563,3.02546501159668,3.02545166015625,3.02544140815735,3.02542972564697,3.02541780471802,3.02540445327759,3.02539253234863,3.02538251876831,3.02537226676941,3.02536058425903,3.02534699440002,3.02533364295959,3.02532339096069,3.02531313896179,3.02530145645142,3.02528786659241,3.02527618408203,3.02526426315308,3.0252525806427,3.02524065971375,3.02522897720337,3.02521705627441,3.02520704269409,3.02519178390503,3.02518177032471,3.02516984939575,3.02515816688538,3.02514791488647,3.0251362323761,3.02512264251709,3.02511096000671,3.02510070800781,3.02508902549744,3.02507543563843,3.02506375312805,3.02505350112915,3.02504181861877,3.02502989768982,3.02501654624939,3.02500462532043,3.02499294281006,3.02498269081116,3.0249707698822,3.02495741844177,3.0249457359314,3.0249354839325,3.02492356300354,3.02491354942322,3.02489995956421,3.02488660812378,3.02487635612488,3.0248646736145,3.0248544216156,3.02484107017517,3.02482914924622,3.02481746673584,3.02480554580688,3.02479553222656,3.02478194236755,3.02477025985718,3.02475833892822,3.02474665641785,3.02473306655884,3.02472305297852,3.02471113204956,3.02469944953918,3.02468919754028,3.02467727661133,3.0246639251709,3.02465224266052,3.02464032173157,3.02463006973267,3.02461838722229,3.02460479736328,3.02459311485291,3.02458119392395,3.02457118034363,3.02455925941467,3.02454590797424,3.02453565597534,3.02452230453491,3.02451205253601,3.02450037002563,3.02448678016663,3.02447509765625,3.02446484565735,3.02445316314697,3.02444124221802,3.02442789077759,3.02441596984863,3.02440595626831,3.02439403533936,3.02438235282898,3.02436876296997,3.02435708045959,3.02434515953064,3.02433490753174,3.02432322502136,3.02431297302246,3.02429795265198,3.02428603172302,3.0242760181427,3.02426409721375,3.02425408363342,3.02424216270447,3.02422881126404,3.02421522140503,3.02420520782471,3.02419495582581,3.02418327331543,3.02416968345642,3.02415800094604,3.02414608001709,3.02413439750671,3.02412414550781,3.02411246299744,3.02409887313843,3.02408719062805,3.02407693862915,3.0240650177002,3.02405333518982,3.02403974533081,3.02402806282043,3.02401781082153,3.02400612831116,3.0239942073822,3.02398252487183,3.02396893501282,3.02395725250244,3.02394700050354,3.02393531799316,3.02392339706421,3.02391171455383,3.02389812469482,3.0238881111145,3.02387619018555,3.02386450767517,3.02385425567627,3.02383923530579,3.02382731437683,3.02381730079651,3.02380537986755,3.02379512786865,3.02378344535828,3.02376818656921,3.02375817298889,3.02374625205994,3.02373456954956,3.02372431755066,3.02371263504028,3.02369737625122,3.0236873626709,3.02367544174194,3.02366542816162,3.02365350723267,3.02364182472229,3.02363157272339,3.02361655235291,3.02360463142395,3.02359461784363,3.02358269691467,3.02357077598572,3.0235607624054,3.02354550361633,3.02353382110596,3.02352356910706,3.02351188659668,3.02350163459778,3.0234899520874,3.02347469329834,3.02346301078796,3.02345275878906,3.02344107627869,3.02343082427979,3.02341914176941,3.02340722084045,3.02339386940002,3.02338194847107,3.02337193489075,3.02336001396179,3.02334809303284,3.02333641052246,3.02332282066345,3.02331113815308,3.02330088615417,3.0232892036438,3.02327728271484
3.00064468383789,3.00063133239746,3.00061941146851,3.00060939788818,3.00059747695923,3.00058746337891,3.0005738735199,3.000563621521,3.00055193901062,3.00054001808167,3.00052833557129,3.00051641464233,3.00050473213196,3.000492811203,3.0004825592041,3.00046920776367,3.00045728683472,3.00044727325439,3.00043535232544,3.00042533874512,3.00041174888611,3.00039982795715,3.00038981437683,3.00037622451782,3.0003662109375,3.00035429000854,3.00034427642822,3.00033235549927,3.00031876564026,3.00030708312988,3.00029683113098,3.00028514862061,3.0002748966217,3.00026154518127,3.00024962425232,3.00023770332336,3.00022768974304,3.00021576881409,3.00020408630371,3.00019216537476,3.00017881393433,3.00016856193542,3.00015830993652,3.00014662742615,3.00013470649719,3.00012302398682,3.00011110305786,3.00010108947754,3.00008749961853,3.00007724761963,3.0000638961792,3.0000536441803,3.00004363059998,3.00003004074097,3.00001835823059,3.00000643730164,2.99999451637268,2.99998450279236,2.9999725818634,2.99996256828308,2.99994897842407,2.9999372959137,2.99992537498474,2.99991512298584,2.99990344047546,2.99989151954651,2.99987983703613,2.99986791610718,2.9998562335968,2.9998459815979,2.99983406066895,2.99982237815857,2.99981045722961,2.99979710578918,2.99978685379028,2.99977660179138,2.99976491928101,2.99975299835205,2.99974131584167,2.99972772598267,2.9997193813324,2.99970579147339,2.99969553947449,2.99968218803406,2.99967193603516,2.99966025352478,2.99964833259583,2.99963665008545,2.99962639808655,2.99961280822754,2.99960279464722,2.99958920478821,2.99957919120789,2.99956727027893,2.99955558776855,2.9995436668396,2.9995334148407,2.99952173233032,2.99950981140137,2.99949645996094,2.99948620796204,2.99947452545166,2.99946427345276,2.9994523525238,2.99943900108337,2.99942708015442,2.9994170665741,2.99940514564514,2.99939489364624,2.99938321113586,2.99936962127686,2.99935793876648,2.99934601783752,2.9993360042572,2.9993257522583,2.99931216239929,2.99930214881897,2.99928855895996,2.99927854537964,2.99926662445068,2.99925494194031,2.99924302101135,2.99923276901245,2.99921941757202,2.99920916557312,2.99919748306274,2.99918556213379,2.99917387962341,2.99916362762451,2.9991500377655,2.99914002418518,2.99912643432617,2.99911642074585,2.99910449981689,2.99909257888794,2.99908256530762,2.99907064437866,2.99905729293823,2.99904704093933,2.99903535842896,2.9990234375,2.9990131855011,2.99899983406067,2.99898791313171,2.99897789955139,2.99896430969238,2.99895429611206,2.99894404411316,2.99893045425415,2.99891877174377,2.99890685081482,2.9988968372345,2.99888491630554,2.99887299537659,2.99886131286621,2.99884939193726,2.99883770942688,2.99882745742798,2.9988157749176,2.99880385398865,2.99879193305969,2.99878025054932,2.99876832962036,2.99875831604004,2.99874639511108,2.99873447418213,2.99872279167175,2.99870920181274,2.99869918823242,2.99868893623352,2.99867558479309,2.99866533279419,2.99865341186523,2.99864172935486,2.9986298084259,2.99861979484558,2.99860620498657,2.99859619140625,2.99858427047729,2.99857234954834,2.99856066703796,2.99854874610901,2.99853706359863,2.99852514266968,2.99851655960083,2.9985032081604,2.99849128723145,2.99847960472107,2.99846768379211,2.99845600128174,2.99844574928284,2.99843382835388,2.99842381477356,2.9984085559845,2.99839854240417,2.99838829040527,2.99837636947632,2.99836468696594,2.99835276603699,2.99833941459656,2.99832916259766,2.99831914901733,2.99830555915833,2.99829530715942,2.99828362464905,2.99827170372009,2.99826002120972,2.99824976921082,2.99823641777039,2.99822616577148,2.99821424484253,2.99820256233215,2.9981906414032,2.99818062782288,2.99816703796387,2.99815678596497,2.99814510345459,2.99813318252563,2.99812150001526,2.9981095790863,2.99809789657593,2.99808597564697,2.99807572364807,2.9980640411377,2.99805378913879,2.99804043769836,2.99802851676941,2.99801659584045,2.99800658226013,2.99799466133118,2.9979829788208,2.99797105789185,2.99795937538147,2.99794745445251,2.99793720245361,2.99792551994324,2.99791359901428,2.99790191650391,2.9978883266449,2.99787974357605,2.99786806106567,2.99785614013672
2.97560048103333,2.97559022903442,2.97557830810547,2.97556662559509,2.97555637359619,2.97554445266724,2.97553277015686,2.97552084922791,2.97551083564758,2.97549891471863,2.97548699378967,2.9754753112793,2.97546339035034,2.97545170783997,2.97544312477112,2.97542953491211,2.97541952133179,2.97540760040283,2.97539567947388,2.9753839969635,2.9753737449646,2.9753634929657,2.97535014152527,2.97533822059631,2.97532820701599,2.97531628608704,2.97530603408813,2.97529435157776,2.97528076171875,2.97527050971985,2.97525882720947,2.97524857521057,2.97523665428162,2.97522664070129,2.97521305084229,2.97520136833191,2.97519111633301,2.97517919540405,2.97516918182373,2.97515726089478,2.97514533996582,2.97513365745544,2.97512340545654,2.97511172294617,2.97509980201721,2.97508788108826,2.97507786750793,2.97506594657898,2.97505569458008,2.9750440120697,2.97503042221069,2.97502040863037,2.97500848770142,2.97499823570251,2.97498655319214,2.97497463226318,2.97496271133423,2.97495102882385,2.974942445755,2.97493052482605,2.97491884231567,2.97490692138672,2.97489356994629,2.97488331794739,2.97487306594849,2.97486305236816,2.97484946250916,2.9748375415802,2.97482585906982,2.97481560707092,2.97480535507202,2.97479367256165,2.97478008270264,2.97477006912231,2.97475814819336,2.97474789619446,2.97473621368408,2.97472596168518,2.97471404075623,2.9747006893158,2.97469043731689,2.97467875480652,2.97466850280762,2.97465658187866,2.97464489936829,2.97463297843933,2.97462105751038,2.97461104393005,2.9745991230011,2.9745888710022,2.97457718849182,2.97456693649292,2.97455358505249,2.97454166412354,2.97453141212463,2.97451972961426,2.9745078086853,2.9744975566864,2.97448587417603,2.97447395324707,2.97446227073669,2.97445201873779,2.97444009780884,2.97443008422852,2.97441649436951,2.97440624237061,2.97439455986023,2.97438263893127,2.97437238693237,2.974360704422,2.9743504524231,2.97433710098267,2.97432684898376,2.97431492805481,2.97430324554443,2.97429299354553,2.97428107261658,2.9742693901062,2.97425746917725,2.97424721717834,2.97423553466797,2.97422528266907,2.97421360015869,2.97420001029968,2.97418975830078,2.97417807579041,2.9741678237915,2.97415590286255,2.97414422035217,2.97413229942322,2.97412061691284,2.97411036491394,2.97409844398499,2.97408843040466,2.97407484054565,2.97406625747681,2.97405290603638,2.97404098510742,2.97403073310852,2.97401905059814,2.97400712966919,2.97399687767029,2.97398519515991,2.97397327423096,2.97396159172058,2.97394967079163,2.97394108772278,2.9739294052124,2.97391748428345,2.97390556335449,2.97389221191406,2.97388195991516,2.97387170791626,2.97386169433594,2.97384810447693,2.97383642196655,2.9738245010376,2.9738142490387,2.97380423545837,2.97379231452942,2.97378039360046,2.97376704216003,2.97375679016113,2.97374653816223,2.97373485565186,2.9737229347229,2.97371292114258,2.97370100021362,2.97368907928467,2.97367739677429,2.97366547584534,2.97365522384644,2.97364354133606,2.97363328933716,2.9736213684082,2.97360968589783,2.97359776496887,2.9735860824585,2.97357583045959,2.97356390953064,2.97355222702026,2.97354030609131,2.97353005409241,2.97351837158203,2.97350645065308,2.97349619865417,2.97348618507385,2.97347259521484,2.97346258163452,2.97345066070557,2.97343873977661,2.97342872619629,2.97341680526733,2.97340488433838,2.973393201828,2.97338128089905,2.97337102890015,2.97336101531982,2.97334909439087,2.97333574295044,2.97332382202148,2.97331357002258,2.97330355644226,2.97329163551331,2.97327971458435,2.97326803207397,2.97325611114502,2.97324585914612,2.97323417663574,2.97322225570679,2.97321200370789,2.97320032119751,2.97318840026855,2.97317671775818,2.97316646575928,2.97315454483032,2.97314453125,2.97313261032104,2.97311902046204,2.97310900688171,2.97309708595276,2.97308683395386,2.97307515144348,2.97306323051453,2.9730532169342,2.97304129600525,2.97302937507629,2.97301769256592,2.97300577163696,2.97299718856812,2.97298550605774,2.97297191619873,2.97295999526978,2.97294998168945,2.9729380607605,2.97292804718018,2.97291612625122,2.97290587425232,2.97289252281189,2.97288060188293,2.97287034988403,2.97285866737366
2.9509711265564,2.95096111297607,2.95095086097717,2.95093727111816,2.95092725753784,2.95091533660889,2.95090508460999,2.95089507102966,2.95088315010071,2.95087122917175,2.95085954666138,2.95084762573242,2.95083904266357,2.95082712173462,2.95081543922424,2.95080518722534,2.95079159736633,2.95078158378601,2.95077133178711,2.95075941085815,2.95074939727783,2.95073747634888,2.95072388648987,2.9507155418396,2.95070362091064,2.95069169998169,2.95068168640137,2.95066976547241,2.95065784454346,2.95064783096313,2.95063591003418,2.95062565803528,2.95061373710632,2.950603723526,2.95059180259705,2.95057988166809,2.95056819915771,2.95055794715881,2.95054769515991,2.95053601264954,2.95052409172058,2.95051217079163,2.9505021572113,2.9504919052124,2.95047998428345,2.95046830177307,2.95045804977417,2.95044445991516,2.95043420791626,2.95042419433594,2.95041227340698,2.95040035247803,2.95039033889771,2.9503800868988,2.95036816596985,2.95035648345947,2.95034456253052,2.95033264160156,2.95032262802124,2.95031237602234,2.95030045509338,2.95028877258301,2.95027685165405,2.95026659965515,2.95025634765625,2.95024633407593,2.95023274421692,2.95022082328796,2.95020914077759,2.95019888877869,2.95018863677979,2.95017862319946,2.95016670227051,2.9501531124115,2.95014309883118,2.95013284683228,2.95012092590332,2.950110912323,2.9501006603241,2.95008707046509,2.95007538795471,2.95006513595581,2.95005321502686,2.95004296302795,2.95003294944763,2.95001935958862,2.95000910758972,2.94999742507935,2.94998717308044,2.94997525215149,2.94996523857117,2.94995331764221,2.94994139671326,2.94993114471436,2.94991946220398,2.94990921020508,2.94989728927612,2.9498872756958,2.94987535476685,2.94986343383789,2.94985175132751,2.94984149932861,2.94983124732971,2.94981956481934,2.94980764389038,2.94979572296143,2.94978404045105,2.94977378845215,2.94976353645325,2.94975161552429,2.94974160194397,2.94972968101501,2.94971776008606,2.94970607757568,2.94969582557678,2.94968390464783,2.94967555999756,2.94966197013855,2.94965004920959,2.94964003562927,2.94962978363037,2.94961786270142,2.94960618019104,2.94959592819214,2.94958233833313,2.94957375526428,2.94956207275391,2.94955015182495,2.949538230896,2.94952821731567,2.94951796531677,2.94950604438782,2.94949436187744,2.94948244094849,2.94947218894958,2.94946050643921,2.94945025444031,2.94943833351135,2.94942808151245,2.94941639900208,2.94940447807312,2.94939255714417,2.9493842124939,2.94937229156494,2.94936037063599,2.94934868812561,2.94933676719666,2.94932818412781,2.94931626319885,2.94930291175842,2.94929265975952,2.94928240776062,2.94927072525024,2.94926047325134,2.94924855232239,2.94923520088196,2.94922494888306,2.94921469688416,2.94920468330383,2.94919276237488,2.94918251037598,2.94917058944702,2.94915723800659,2.94914698600769,2.94913673400879,2.94912672042847,2.94911479949951,2.94910287857056,2.94909119606018,2.94908094406128,2.94906902313232,2.94905734062195,2.94904708862305,2.94903683662415,2.94902348518372,2.94901323318481,2.94900298118591,2.94899106025696,2.94897937774658,2.94896912574768,2.94895887374878,2.9489471912384,2.94893527030945,2.94892334938049,2.94891166687012,2.94890141487122,2.94889116287231,2.94887924194336,2.94886755943298,2.94885730743408,2.94884538650513,2.9488353729248,2.94882345199585,2.94881153106689,2.94879984855652,2.94878959655762,2.94877767562866,2.94876909255981,2.94875741004944,2.94874548912048,2.94873213768005,2.94872188568115,2.94871163368225,2.9486997127533,2.94868969917297,2.94867944717407,2.94866585731506,2.94865417480469,2.94864392280579,2.94863367080688,2.94862198829651,2.94861006736755,2.9485981464386,2.94858956336975,2.94857788085938,2.94856595993042,2.94855570793152,2.94854402542114,2.94853210449219,2.94852018356323,2.94851016998291,2.94849991798401,2.94848799705505,2.9484760761261,2.94846773147583,2.94845414161682,2.94844222068787,2.94843053817749,2.94842028617859,2.94841003417969,2.94840002059937,2.94838643074036,2.94837617874146,2.94836449623108,2.94835257530212,2.94834232330322,2.94833207130432,2.94832038879395,2.94830846786499,2.94829654693604,2.94828653335571,2.94827628135681
2.92674732208252,2.92673707008362,2.92672538757324,2.92671346664429,2.92670321464539,2.92669296264648,2.92668128013611,2.92667102813721,2.92665910720825,2.92664742469788,2.92663717269897,2.92662692070007,2.92661499977112,2.9266049861908,2.92659306526184,2.92658448219299,2.92657089233398,2.92656087875366,2.92655062675476,2.92653870582581,2.9265284538269,2.92651677131653,2.92650485038757,2.92649292945862,2.92648267745972,2.92647099494934,2.92646241188049,2.92645049095154,2.92644023895264,2.92642688751221,2.92641663551331,2.9264063835144,2.9263961315155,2.92638444900513,2.92637419700623,2.92636227607727,2.92635059356689,2.92634034156799,2.92633008956909,2.92631816864014,2.92630815505981,2.92629623413086,2.9262843132019,2.92627573013306,2.92626237869263,2.92625212669373,2.92624020576477,2.92622995376587,2.92621827125549,2.92620801925659,2.92619609832764,2.92618584632874,2.92617416381836,2.92616391181946,2.9261519908905,2.9261417388916,2.92613005638123,2.92611980438232,2.92610955238342,2.92609930038452,2.92608594894409,2.92607569694519,2.92606544494629,2.92605352401733,2.92604351043701,2.92603325843811,2.92602133750916,2.92600965499878,2.92599940299988,2.92598748207092,2.92597723007202,2.92596697807312,2.92595529556274,2.92594337463379,2.92593312263489,2.92591977119446,2.92591118812561,2.92589926719666,2.92588901519775,2.92587566375732,2.92586541175842,2.92585349082947,2.92584490776062,2.92583322525024,2.92582297325134,2.92581105232239,2.92579913139343,2.92578911781311,2.92577886581421,2.92576694488525,2.92575669288635,2.92574501037598,2.92573308944702,2.92572283744812,2.92571258544922,2.92570090293884,2.92569065093994,2.92567873001099,2.92566847801208,2.92565679550171,2.92564654350281,2.92563462257385,2.92562437057495,2.92561268806458,2.92560410499573,2.92559051513672,2.92558026313782,2.92556858062744,2.92555832862854,2.92554807662964,2.92553782463074,2.92552447319031,2.92551422119141,2.92550230026245,2.92549228668213,2.92548203468323,2.92547178268433,2.92545819282532,2.925448179245,2.92543625831604,2.92542767524719,2.92541575431824,2.92540550231934,2.92539381980896,2.92538189888,2.92536997795105,2.92536163330078,2.92534971237183,2.92533946037292,2.92532753944397,2.92531585693359,2.92530560493469,2.92529535293579,2.92528343200684,2.92527341842651,2.92526149749756,2.9252495765686,2.9252393245697,2.92522931098938,2.92521739006042,2.92520713806152,2.92519521713257,2.92518520355225,2.92517328262329,2.92516303062439,2.92515110969543,2.92514109611511,2.92512917518616,2.92511892318726,2.9251070022583,2.92509698867798,2.92508506774902,2.92507481575012,2.92506456375122,2.92505288124084,2.92504096031189,2.92503070831299,2.92501878738403,2.92500877380371,2.92499852180481,2.92498660087585,2.92497634887695,2.92496466636658,2.92495274543762,2.92494249343872,2.92493224143982,2.92492055892944,2.92491030693054,2.92489838600159,2.92488646507263,2.92487645149231,2.92486619949341,2.92485427856445,2.92484402656555,2.92483234405518,2.92482209205627,2.92481017112732,2.92479991912842,2.92478823661804,2.92477798461914,2.92476606369019,2.92475581169128,2.92474412918091,2.92473387718201,2.92472195625305,2.92471170425415,2.92470169067383,2.92468976974487,2.92467784881592,2.92466759681702,2.92465591430664,2.92464566230774,2.92463541030884,2.92462348937988,2.92461180686951,2.92459988594055,2.92458963394165,2.92457938194275,2.92456936836243,2.92455744743347,2.92454552650452,2.92453384399414,2.92452359199524,2.92451333999634,2.92450308799744,2.92449116706848,2.92447948455811,2.92446756362915,2.9244589805603,2.92444705963135,2.92443704605103,2.92442512512207,2.92441320419312,2.92440152168274,2.92439126968384,2.92438101768494,2.92436909675598,2.92435884475708,2.9243471622467,2.9243369102478,2.92432498931885,2.92431473731995,2.92430305480957,2.92429447174072,2.92428255081177,2.92427062988281,2.92426061630249,2.92424869537354,2.92423844337463,2.92422652244568,2.92421817779541,2.92420625686646,2.9241943359375,2.92418241500854,2.92417240142822,2.92416048049927,2.92415189743042,2.92413997650146,2.92412829399109,2.92411637306213,2.92410612106323,2.92409586906433
2.90291881561279,2.90290856361389,2.90289688110352,2.90288496017456,2.90287470817566,2.90286445617676,2.90285444259644,2.90284419059753,2.90283226966858,2.90282201766968,2.90281009674072,2.90279841423035,2.90278816223145,2.90277791023254,2.90276765823364,2.90275573730469,2.90274572372437,2.90273547172546,2.90272355079651,2.90271329879761,2.90270137786865,2.90269136428833,2.90267944335938,2.90266919136047,2.90265893936157,2.90264701843262,2.90263700485229,2.90262675285339,2.90261483192444,2.90260291099548,2.90259265899658,2.90258264541626,2.9025707244873,2.90256214141846,2.90255188941956,2.90253853797913,2.90252828598022,2.90251803398132,2.90250778198242,2.90249586105347,2.90248560905457,2.90247392654419,2.90246200561523,2.90245175361633,2.90244317054749,2.90243124961853,2.90242123603821,2.90240931510925,2.9023973941803,2.9023871421814,2.90237712860107,2.90236687660217,2.90235495567322,2.90234470367432,2.90233278274536,2.90232276916504,2.90231084823608,2.90230059623718,2.90229034423828,2.90227842330933,2.90227007865906,2.9022581577301,2.9022479057312,2.90223598480225,2.90222406387329,2.90221405029297,2.90220546722412,2.90219187736511,2.90218162536621,2.90217137336731,2.90215969085693,2.90214943885803,2.90213918685913,2.90212726593018,2.90211534500122,2.9021053314209,2.902095079422,2.9020848274231,2.90207457542419,2.90206265449524,2.90205097198486,2.90204071998596,2.90203046798706,2.90202021598816,2.90200996398926,2.90199828147888,2.90198636054993,2.90197610855103,2.90196418762207,2.90195393562317,2.90194392204285,2.90193367004395,2.90192008018494,2.90191149711609,2.90190124511719,2.90188956260681,2.90187764167786,2.90186738967896,2.90185713768005,2.9018452167511,2.90183520317078,2.90182495117188,2.90181469917297,2.90180277824402,2.90179252624512,2.90178084373474,2.90177059173584,2.90175867080688,2.90174841880798,2.90173816680908,2.90172815322876,2.9017162322998,2.90170431137085,2.90169405937195,2.90168213844299,2.90167379379272,2.90166354179382,2.90165162086487,2.90163969993591,2.90162944793701,2.90161776542664,2.90160918235779,2.90159726142883,2.90158700942993,2.90157508850098,2.9015634059906,2.9015531539917,2.9015429019928,2.9015326499939,2.90152072906494,2.90150904655457,2.90149879455566,2.90148854255676,2.90147662162781,2.90146636962891,2.90145635604858,2.90144610404968,2.90143418312073,2.90142393112183,2.90141367912292,2.90140199661255,2.90139007568359,2.90137982368469,2.90136957168579,2.90135931968689,2.90134763717651,2.90133738517761,2.90132713317871,2.90131688117981,2.9013032913208,2.90129327774048,2.90128302574158,2.90127277374268,2.90126085281372,2.90125060081482,2.9012405872345,2.90122866630554,2.90121674537659,2.90120649337769,2.90119791030884,2.90118622779846,2.90117430686951,2.90116238594055,2.90115213394165,2.90114188194275,2.90113186836243,2.90112161636353,2.90110969543457,2.90109777450562,2.90108585357666,2.90107750892639,2.90106725692749,2.90105700492859,2.90104508399963,2.90103483200073,2.90102314949036,2.90101289749146,2.9010009765625,2.9009907245636,2.9009804725647,2.90097045898438,2.90095686912537,2.90094661712646,2.90093636512756,2.90092611312866,2.90091443061829,2.90090417861938,2.90089225769043,2.90088200569153,2.90087008476257,2.90086007118225,2.90084981918335,2.9008412361145,2.90082931518555,2.90081739425659,2.90080571174622,2.90079545974731,2.90078520774841,2.90077495574951,2.90076470375061,2.90075278282166,2.90074110031128,2.90072917938232,2.90072059631348,2.90071034431458,2.90070009231567,2.9006884098053,2.90067648887634,2.90066456794739,2.90065598487854,2.90064573287964,2.90063405036926,2.90062379837036,2.90061187744141,2.9006016254425,2.90058970451355,2.90057969093323,2.90056943893433,2.90055918693542,2.90054559707642,2.90053534507751,2.90052533149719,2.90051507949829,2.90050482749939,2.90049290657043,2.90048265457153,2.90047097206116,2.90046072006226,2.9004487991333,2.9004385471344,2.9004282951355,2.90041828155518,2.90040469169617,2.90039443969727,2.90038418769836,2.90037393569946,2.90036392211914,2.90035200119019,2.90034008026123,2.90032982826233,2.90031957626343,2.90030789375305
2.87947416305542,2.87946391105652,2.87945365905762,2.87944197654724,2.87943005561829,2.87941980361938,2.87940955162048,2.87939929962158,2.87938904762268,2.87937879562378,2.87936544418335,2.87935519218445,2.8793466091156,2.87933468818665,2.87932443618774,2.87931418418884,2.87930250167847,2.87929224967957,2.87928032875061,2.87927174568176,2.87925982475281,2.87924957275391,2.879239320755,2.87922930717468,2.87921738624573,2.87920713424683,2.87919688224792,2.87918496131897,2.87917637825012,2.87916302680969,2.87915444374084,2.87914252281189,2.87913227081299,2.87912201881409,2.87911176681519,2.87909984588623,2.87908816337585,2.87907958030701,2.87906765937805,2.8790590763092,2.87904715538025,2.87903690338135,2.87902522087097,2.87901329994202,2.87900471687317,2.87899446487427,2.87898421287537,2.87897229194641,2.87896037101746,2.87895035743713,2.87894177436829,2.87892985343933,2.87891793251038,2.87890934944153,2.87889575958252,2.87888717651367,2.87887716293335,2.87886691093445,2.87885499000549,2.87884473800659,2.87883448600769,2.87882256507874,2.87881255149841,2.87880063056946,2.87879204750061,2.87878012657166,2.87877154350281,2.8787579536438,2.87874937057495,2.87873768806458,2.87872576713562,2.87871718406677,2.87870693206787,2.87869501113892,2.87868309020996,2.87867450714111,2.87866282463074,2.87865424156189,2.87864232063293,2.87863206863403,2.87862014770508,2.87860822677612,2.8785982131958,2.8785879611969,2.87857937812805,2.8785674571991,2.87855553627014,2.87854528427124,2.87853670120239,2.87852501869202,2.87851476669312,2.87850451469421,2.87849426269531,2.8784806728363,2.8784704208374,2.87846183776855,2.87845015525818,2.87843990325928,2.87842798233032,2.87841773033142,2.87840747833252,2.87839722633362,2.87838530540466,2.87837696075439,2.87836503982544,2.87835311889648,2.87834286689758,2.87833261489868,2.87832236289978,2.8783106803894,2.87830209732056,2.8782901763916,2.8782799243927,2.87826800346375,2.87825775146484,2.87824749946594,2.87823891639709,2.87822723388672,2.87821531295776,2.87820506095886,2.87819314002991,2.87818455696106,2.8781726360321,2.87816262245178,2.87815070152283,2.87814044952393,2.87812852859497,2.87811994552612,2.87810969352722,2.87809944152832,2.87808775901794,2.87807750701904,2.87806725502014,2.87805700302124,2.87804508209229,2.87803483009338,2.87802457809448,2.87801122665405,2.87800264358521,2.87799072265625,2.8779821395874,2.87797021865845,2.87795996665955,2.87794828414917,2.87793970108032,2.87792778015137,2.87791752815247,2.87790560722351,2.87789702415466,2.87788677215576,2.87787485122681,2.87786316871643,2.87785458564758,2.87784266471863,2.87783408164978,2.87782216072083,2.87781023979187,2.87780022621155,2.87778830528259,2.87777805328369,2.87776780128479,2.87775921821594,2.87774562835693,2.87773537635803,2.87772536277771,2.87771511077881,2.87770485877991,2.87769460678101,2.87768268585205,2.87767243385315,2.87766051292419,2.87765216827393,2.87764024734497,2.87762999534607,2.87761974334717,2.87760782241821,2.87759757041931,2.87758731842041,2.87757730484009,2.87756705284119,2.87755513191223,2.87754321098328,2.87753295898438,2.87752437591553,2.87751245498657,2.87750244140625,2.87749052047729,2.87748193740845,2.87747001647949,2.87745976448059,2.87744784355164,2.87743926048279,2.87742757797241,2.87741899490356,2.87740540504456,2.87739515304565,2.87738490104675,2.8773729801178,2.87736439704895,2.87735271453857,2.87734246253967,2.87733054161072,2.87732028961182,2.87730836868286,2.87729978561401,2.87728953361511,2.87727952003479,2.87726593017578,2.87725567817688,2.87724709510803,2.87723684310913,2.87722492218018,2.87721467018127,2.8772029876709,2.877192735672,2.8771824836731,2.87717223167419,2.87716031074524,2.87715172767639,2.87713813781738,2.87712979316711,2.87711787223816,2.87710762023926,2.87709736824036,2.87708711624146,2.8770751953125,2.8770649433136,2.87705492973328,2.87704467773438,2.87703275680542,2.87702250480652,2.87701225280762,2.87700200080872,2.87699007987976,2.87698006629944,2.87696814537048,2.87695956230164,2.87694931030273,2.87693905830383,2.87692546844482,2.87691521644592,2.8769052028656
2.85640501976013,2.85639476776123,2.85638451576233,2.85637259483337,2.856360912323,2.85635232925415,2.85634207725525,2.85633182525635,2.85632157325745,2.85631132125854,2.85629773139954,2.85628747940063,2.85627889633179,2.85626864433289,2.85625839233398,2.85624837875366,2.85623645782471,2.85622620582581,2.8562159538269,2.856205701828,2.8561954498291,2.8561851978302,2.85617327690125,2.85616302490234,2.85615277290344,2.85614275932312,2.85613250732422,2.85612225532532,2.85611200332642,2.85610008239746,2.85608983039856,2.8560779094696,2.85606932640076,2.85605907440186,2.85604882240295,2.85603880882263,2.85602688789368,2.85601496696472,2.85600471496582,2.85599613189697,2.85598587989807,2.85597562789917,2.85596370697021,2.85595178604126,2.85594153404236,2.85593318939209,2.85592293739319,2.85591268539429,2.85590076446533,2.85588884353638,2.85588026046753,2.85587000846863,2.85585975646973,2.85584950447083,2.85583925247192,2.85582590103149,2.85581731796265,2.85580706596375,2.85579681396484,2.85578656196594,2.85577630996704,2.85576438903809,2.85575413703918,2.85574388504028,2.85573363304138,2.85572338104248,2.8557116985321,2.8557014465332,2.8556911945343,2.85567927360535,2.8556706905365,2.8556604385376,2.8556501865387,2.85563993453979,2.85562801361084,2.85561633110046,2.85560774803162,2.85559749603271,2.85558724403381,2.85557699203491,2.85556507110596,2.855553150177,2.85554456710815,2.85553431510925,2.85552406311035,2.85551381111145,2.85550212860107,2.85549020767212,2.85548162460327,2.85547137260437,2.85546112060547,2.85545086860657,2.85543894767761,2.85542702674866,2.85542011260986,2.85540819168091,2.85539793968201,2.85538792610168,2.85537600517273,2.85536408424377,2.85535550117493,2.85534524917603,2.85533499717712,2.85532474517822,2.85531282424927,2.85530424118042,2.85529232025146,2.85528230667114,2.85527205467224,2.85526180267334,2.85524988174438,2.85524129867554,2.85522937774658,2.85521912574768,2.85520887374878,2.85519695281982,2.85518836975098,2.85517811775208,2.8551664352417,2.8551561832428,2.8551459312439,2.85513401031494,2.85512709617615,2.85511517524719,2.85510325431824,2.85509300231934,2.85508275032043,2.85507249832153,2.85506224632263,2.85505223274231,2.85504198074341,2.85503005981445,2.8550181388855,2.8550112247467,2.85499930381775,2.85498905181885,2.85497879981995,2.85496687889099,2.85495829582214,2.85494804382324,2.85493636131287,2.85492610931396,2.85491585731506,2.85490393638611,2.85489535331726,2.85488343238831,2.8548731803894,2.8548629283905,2.85485100746155,2.85484409332275,2.85483241081238,2.85482048988342,2.85481023788452,2.85479998588562,2.85478973388672,2.85478115081787,2.85476756095886,2.85475730895996,2.85474705696106,2.85473680496216,2.85472822189331,2.85471653938293,2.85470628738403,2.85469436645508,2.85468411445618,2.85467386245728,2.85466527938843,2.85465335845947,2.85464310646057,2.85463118553162,2.85462093353271,2.85461235046387,2.85460066795349,2.85459041595459,2.85458016395569,2.85456991195679,2.85455799102783,2.85454940795898,2.85453748703003,2.85452723503113,2.85451698303223,2.85450673103333,2.85449647903442,2.85448479652405,2.85447454452515,2.8544659614563,2.85445404052734,2.85444378852844,2.85443353652954,2.85442161560059,2.85441303253174,2.85440111160278,2.85439085960388,2.85438084602356,2.8543689250946,2.85436034202576,2.85435009002686,2.8543381690979,2.854327917099,2.8543176651001,2.85430908203125,2.85429716110229,2.85428524017334,2.85427498817444,2.85426640510559,2.85425639152527,2.85424613952637,2.85423254966736,2.85422229766846,2.85421371459961,2.85420346260071,2.85419321060181,2.85418128967285,2.8541693687439,2.85416078567505,2.85414910316467,2.85414052009583,2.85413026809692,2.85411834716797,2.85410976409912,2.85409784317017,2.85408759117126,2.85407733917236,2.85406708717346,2.85405683517456,2.85404491424561,2.85403323173523,2.85402464866638,2.85401439666748,2.85400414466858,2.85399389266968,2.85398197174072,2.85397171974182,2.85396146774292,2.85395121574402,2.85394096374512,2.85392904281616,2.85392045974731,2.85391044616699,2.85389852523804,2.85388827323914,2.85387635231018
2.83370137214661,2.83369112014771,2.83368110656738,2.83367228507996,2.83366060256958,2.83365035057068,2.83364009857178,2.83362984657288,2.83361959457397,2.83360934257507,2.83359742164612,2.83358716964722,2.83357858657837,2.83356666564941,2.83355808258057,2.83354783058167,2.83353757858276,2.83352565765381,2.83351707458496,2.83350515365601,2.8334949016571,2.8334846496582,2.8334743976593,2.83346438407898,2.83345413208008,2.83344388008118,2.83343362808228,2.83342337608337,2.83341312408447,2.83340454101562,2.83339262008667,2.83338236808777,2.83337044715881,2.83336019515991,2.83335161209106,2.83334136009216,2.83332943916321,2.83331918716431,2.83330893516541,2.8332986831665,2.8332884311676,2.83327984809875,2.8332679271698,2.8332576751709,2.833247423172,2.83323884010315,2.83322715759277,2.83321690559387,2.83320665359497,2.83319473266602,2.83318448066711,2.83317589759827,2.83316564559937,2.83315372467041,2.83314514160156,2.83313322067261,2.83312463760376,2.83311438560486,2.83310413360596,2.83309388160706,2.8330819606781,2.83307003974915,2.8330614566803,2.8330512046814,2.8330409526825,2.83303070068359,2.83302044868469,2.83301043510437,2.83300018310547,2.83298993110657,2.83297967910767,2.83296942710876,2.83295917510986,2.83295059204102,2.83293700218201,2.83292675018311,2.8329164981842,2.8329062461853,2.83289766311646,2.83288741111755,2.8328754901886,2.83286356925964,2.8328549861908,2.83284473419189,2.83283448219299,2.83282423019409,2.83281564712524,2.83280372619629,2.83279347419739,2.83278346061707,2.83277320861816,2.83276295661926,2.83275270462036,2.83274078369141,2.8327305316925,2.83272194862366,2.8327100276947,2.8326997756958,2.8326895236969,2.832679271698,2.8326690196991,2.8326587677002,2.83265018463135,2.83263993263245,2.83262801170349,2.83261775970459,2.83260750770569,2.83259725570679,2.83258700370789,2.83257675170898,2.83256649971008,2.83255791664124,2.83254456520081,2.8325343132019,2.832524061203,2.8325138092041,2.8325035572052,2.83249497413635,2.8324830532074,2.83247447013855,2.83246254920959,2.83245229721069,2.83244371414185,2.83243346214294,2.83242321014404,2.83241128921509,2.83240103721619,2.83239078521729,2.83238053321838,2.83237028121948,2.83236002922058,2.83234810829163,2.83233785629272,2.83232760429382,2.83231902122498,2.83230876922607,2.83229875564575,2.8322868347168,2.8322765827179,2.83226799964905,2.83225774765015,2.83224749565125,2.83223724365234,2.83222699165344,2.83221507072449,2.83220481872559,2.83219456672668,2.83218431472778,2.83217406272888,2.83216381072998,2.83215355873108,2.83214330673218,2.83213305473328,2.83212280273438,2.83211088180542,2.83210062980652,2.83209037780762,2.83208012580872,2.83207011222839,2.83206129074097,2.83205127716064,2.83204102516174,2.83203077316284,2.83201885223389,2.83200860023499,2.83199834823608,2.83198809623718,2.83197951316833,2.83196926116943,2.83195734024048,2.83194708824158,2.83193683624268,2.83192658424377,2.83191633224487,2.83190608024597,2.83189582824707,2.83188390731812,2.83187365531921,2.83186507225037,2.83185482025146,2.83184456825256,2.83183431625366,2.83182239532471,2.83181238174438,2.83180212974548,2.83179187774658,2.83178329467773,2.83177304267883,2.83176112174988,2.83175253868103,2.83174228668213,2.83173203468323,2.83172011375427,2.83170986175537,2.83170127868652,2.83168935775757,2.83167910575867,2.83166885375977,2.83165860176086,2.83164834976196,2.83163976669312,2.83162784576416,2.83161592483521,2.8316056728363,2.8315954208374,2.83158683776855,2.83157658576965,2.8315646648407,2.83155465126038,2.83154439926147,2.83153414726257,2.83152556419373,2.83151364326477,2.83150339126587,2.83149313926697,2.83148288726807,2.83147263526917,2.83146238327026,2.83145213127136,2.83144354820251,2.83143162727356,2.83142137527466,2.83141112327576,2.83140087127686,2.83139061927795,2.83138036727905,2.8313684463501,2.83135986328125,2.83134961128235,2.83133935928345,2.83132910728455,2.83131885528564,2.83130860328674,2.83129835128784,2.83128666877747,2.83127641677856,2.83126616477966,2.83125591278076,2.83124732971191,2.83123540878296,2.83122515678406,2.83121490478516
2.81135678291321,2.81134653091431,2.81133794784546,2.81132769584656,2.8113157749176,2.81130719184875,2.8112952709198,2.81128668785095,2.81127643585205,2.81126618385315,2.81125593185425,2.81124567985535,2.81123375892639,2.81122517585754,2.81121492385864,2.81120467185974,2.81119441986084,2.81118416786194,2.81117558479309,2.81116366386414,2.81115508079529,2.81114482879639,2.81113457679749,2.81112265586853,2.81111407279968,2.81110382080078,2.81109356880188,2.81108331680298,2.81107306480408,2.81106281280518,2.81105256080627,2.81104230880737,2.81103205680847,2.81102180480957,2.81101155281067,2.81100130081177,2.81099104881287,2.81098246574402,2.81097054481506,2.81096196174622,2.81095170974731,2.81094145774841,2.81092953681946,2.81092095375061,2.81090903282166,2.81090044975281,2.81089019775391,2.810879945755,2.8108696937561,2.8108594417572,2.8108491897583,2.8108389377594,2.81083035469055,2.8108184337616,2.81080985069275,2.81079792976379,2.81078767776489,2.81077742576599,2.81076884269714,2.81075692176819,2.81074833869934,2.81073808670044,2.81072783470154,2.81071591377258,2.81070733070374,2.81069707870483,2.81068682670593,2.81067657470703,2.81066632270813,2.81065607070923,2.81064581871033,2.81063556671143,2.81062531471252,2.81061506271362,2.81060481071472,2.81059455871582,2.81058597564697,2.81057405471802,2.81056547164917,2.81055521965027,2.81054663658142,2.81053304672241,2.81052446365356,2.81051254272461,2.81050395965576,2.81049370765686,2.81048512458801,2.81047320365906,2.81046295166016,2.81045269966125,2.81044411659241,2.81043386459351,2.8104236125946,2.81041169166565,2.81040143966675,2.81039118766785,2.810382604599,2.8103723526001,2.8103621006012,2.81035184860229,2.81034159660339,2.81033134460449,2.81032109260559,2.81031084060669,2.81030058860779,2.81029033660889,2.81028008460999,2.81027150154114,2.81025958061218,2.81025099754333,2.81023907661438,2.81023049354553,2.81021857261658,2.81020998954773,2.81019806861877,2.81018948554993,2.81017756462097,2.81016898155212,2.81016039848328,2.81014847755432,2.81013822555542,2.81012797355652,2.81011772155762,2.81010746955872,2.81009888648987,2.81008696556091,2.81007671356201,2.81006646156311,2.81005620956421,2.81004762649536,2.81003737449646,2.8100254535675,2.8100152015686,2.8100049495697,2.80999803543091,2.80998611450195,2.80997753143311,2.80996561050415,2.80995535850525,2.80994343757629,2.80993485450745,2.80992460250854,2.8099160194397,2.8099057674408,2.80989384651184,2.80988526344299,2.80987334251404,2.80986475944519,2.80985283851624,2.80984425544739,2.80983233451843,2.80982375144958,2.80981349945068,2.80980324745178,2.80979299545288,2.80978274345398,2.80977392196655,2.80976366996765,2.80975198745728,2.80974316596985,2.80973148345947,2.80972266197205,2.80971240997314,2.80970048904419,2.80969190597534,2.80967998504639,2.80967140197754,2.80966114997864,2.80965256690979,2.80963897705078,2.80963039398193,2.80962014198303,2.80960988998413,2.80960130691528,2.80958938598633,2.80958080291748,2.80956888198853,2.80955862998962,2.80955004692078,2.80953979492188,2.80952954292297,2.80951929092407,2.80950736999512,2.80949711799622,2.80948853492737,2.80947828292847,2.80946803092957,2.80945777893066,2.80944585800171,2.80943727493286,2.80942702293396,2.80941677093506,2.80940818786621,2.80939626693726,2.80938768386841,2.80937576293945,2.80936717987061,2.8093569278717,2.8093466758728,2.8093364238739,2.809326171875,2.8093159198761,2.80930399894714,2.8092954158783,2.80928516387939,2.80927491188049,2.80926632881165,2.80925607681274,2.80924415588379,2.80923390388489,2.80922365188599,2.80921506881714,2.80920481681824,2.80919456481934,2.80918264389038,2.80917239189148,2.80916380882263,2.80915355682373,2.80914497375488,2.80913305282593,2.80912280082703,2.80911254882812,2.80910229682922,2.80909371376038,2.80908179283142,2.80907320976257,2.80906128883362,2.80905103683472,2.80904245376587,2.80903220176697,2.80902194976807,2.80901169776917,2.80900144577026,2.80899119377136,2.80898094177246,2.80897068977356,2.80896043777466,2.80895018577576,2.80894160270691,2.80892968177795,2.80892109870911,2.80890917778015
2.78936147689819,2.78935098648071,2.78934240341187,2.78933382034302,2.78932356834412,2.78931164741516,2.78930139541626,2.78929281234741,2.78928422927856,2.78927397727966,2.78926372528076,2.78925180435181,2.78924322128296,2.78923296928406,2.78922271728516,2.78921246528625,2.78920221328735,2.78919196128845,2.78918170928955,2.78917288780212,2.78916263580322,2.78915238380432,2.78914213180542,2.78913354873657,2.78912162780762,2.78911304473877,2.78910279273987,2.78909254074097,2.78908395767212,2.78907370567322,2.78906345367432,2.78905320167542,2.78904294967651,2.78903269767761,2.78902244567871,2.78901219367981,2.78900194168091,2.78899168968201,2.78898286819458,2.78897261619568,2.78896236419678,2.78895378112793,2.78894352912903,2.78893160820007,2.78892302513123,2.78891277313232,2.78890252113342,2.78889226913452,2.78888201713562,2.78887176513672,2.78886151313782,2.78885126113892,2.78884267807007,2.78883242607117,2.78882384300232,2.78881192207336,2.78880167007446,2.78879117965698,2.78878259658813,2.78877401351929,2.78876376152039,2.78875350952148,2.78874158859253,2.78873133659363,2.78872275352478,2.78871250152588,2.78870224952698,2.78869199752808,2.78868174552917,2.78867316246033,2.78866291046143,2.78865265846252,2.78864240646362,2.78863382339478,2.78862333297729,2.78861308097839,2.78860282897949,2.78859257698059,2.78858232498169,2.78857207298279,2.78856348991394,2.78855156898499,2.78854131698608,2.78853273391724,2.78852248191833,2.78851389884949,2.78850364685059,2.78849172592163,2.78848314285278,2.78847289085388,2.78846263885498,2.78845238685608,2.78844213485718,2.78843331336975,2.7884213924408,2.78841114044189,2.78840255737305,2.7883939743042,2.7883837223053,2.7883734703064,2.78836154937744,2.78835129737854,2.78834271430969,2.78833246231079,2.78832221031189,2.78831195831299,2.78830170631409,2.78829312324524,2.78828287124634,2.78827261924744,2.78826212882996,2.78825354576111,2.78824329376221,2.78823304176331,2.7882227897644,2.7882125377655,2.7882022857666,2.7881920337677,2.78818345069885,2.7881715297699,2.78816294670105,2.78815269470215,2.78814244270325,2.78813219070435,2.7881236076355,2.7881133556366,2.7881031036377,2.78809261322021,2.78808236122131,2.78807377815247,2.78806352615356,2.78805327415466,2.78804135322571,2.78803110122681,2.78802251815796,2.78801393508911,2.78800368309021,2.78799343109131,2.78798317909241,2.78797292709351,2.7879626750946,2.7879524230957,2.7879421710968,2.78793358802795,2.787921667099,2.7879114151001,2.78790259361267,2.78789401054382,2.78788375854492,2.78787350654602,2.78786325454712,2.78785300254822,2.78784275054932,2.78783249855042,2.78782224655151,2.78781199455261,2.78780341148376,2.78779315948486,2.78778290748596,2.78777265548706,2.78776407241821,2.78775215148926,2.78774333000183,2.78773140907288,2.78772282600403,2.78771257400513,2.78770232200623,2.78769207000732,2.78768348693848,2.78767323493958,2.78766298294067,2.78765273094177,2.78764247894287,2.78763389587402,2.78762364387512,2.78761339187622,2.78760147094727,2.78759288787842,2.78758263587952,2.78757381439209,2.78756356239319,2.78755331039429,2.78754138946533,2.78753113746643,2.78752255439758,2.78751230239868,2.78750371932983,2.78749346733093,2.78748321533203,2.78747129440308,2.78746271133423,2.78745245933533,2.78744220733643,2.78743195533752,2.78742337226868,2.7874128818512,2.78740262985229,2.78739237785339,2.78738379478455,2.78737354278564,2.78736329078674,2.78735136985779,2.78734278678894,2.78733253479004,2.78732228279114,2.78731203079224,2.78730511665344,2.78729486465454,2.78728294372559,2.78727269172668,2.78726410865784,2.78725218772888,2.78724336624146,2.78723311424255,2.78722286224365,2.78721261024475,2.78720235824585,2.787193775177,2.7871835231781,2.7871732711792,2.7871630191803,2.78715109825134,2.7871425151825,2.78713393211365,2.78712368011475,2.78711342811584,2.787104845047,2.78709292411804,2.78708243370056,2.78707218170166,2.78706359863281,2.78705334663391,2.78704309463501,2.78703117370605,2.78702425956726,2.78701400756836,2.78700375556946,2.78699350357056,2.78698325157166,2.78697299957275,2.78696274757385,2.78695249557495
2.76770830154419,2.76769804954529,2.76768946647644,2.76768088340759,2.76767039299011,2.76765847206116,2.76764988899231,2.76763963699341,2.76762938499451,2.76762080192566,2.76761221885681,2.76760029792786,2.76759004592896,2.76757979393005,2.76757097244263,2.76756238937378,2.76755213737488,2.76754355430603,2.76753163337708,2.76752305030823,2.76751446723938,2.76750254631042,2.76749396324158,2.76748371124268,2.7674732208252,2.76746463775635,2.76745438575745,2.76744413375854,2.76743388175964,2.76742362976074,2.76741337776184,2.76740479469299,2.76739454269409,2.76738429069519,2.76737380027771,2.76736521720886,2.76735663414001,2.76734471321106,2.76733613014221,2.76732587814331,2.76731562614441,2.76730537414551,2.76729679107666,2.76728630065918,2.76727604866028,2.76726746559143,2.76725554466248,2.76724696159363,2.76723837852478,2.76722645759583,2.76721787452698,2.76720762252808,2.76719737052917,2.76718854904175,2.76717829704285,2.76716804504395,2.76715779304504,2.76714754104614,2.76713895797729,2.76712870597839,2.76711845397949,2.76710987091064,2.76709794998169,2.76708912849426,2.76708054542542,2.76707029342651,2.76706004142761,2.76704978942871,2.76703953742981,2.76703095436096,2.76702070236206,2.76701045036316,2.76700162887573,2.76698970794678,2.76698112487793,2.76697087287903,2.76696062088013,2.76695203781128,2.76694178581238,2.76693320274353,2.76692295074463,2.76691102981567,2.76690220832825,2.76689195632935,2.76688170433044,2.7668731212616,2.76686453819275,2.76685261726379,2.76684236526489,2.76683211326599,2.76682353019714,2.76681470870972,2.76680445671082,2.76679587364197,2.76678228378296,2.76677370071411,2.76676344871521,2.76675486564636,2.76674628257751,2.76673603057861,2.76672410964966,2.76671361923218,2.76670503616333,2.76669478416443,2.76668620109558,2.76667594909668,2.76666569709778,2.76665544509888,2.76664519309998,2.76663661003113,2.76662611961365,2.76661586761475,2.7666072845459,2.766597032547,2.7665867805481,2.76657819747925,2.76656627655029,2.76655769348145,2.76654744148254,2.76653718948364,2.76652836799622,2.76651811599731,2.76650953292847,2.76649761199951,2.76648902893066,2.76647877693176,2.76646852493286,2.76645827293396,2.76644968986511,2.76643919944763,2.76643061637878,2.76642036437988,2.76640844345093,2.76639986038208,2.76638960838318,2.76638102531433,2.76637077331543,2.76636219024658,2.76635026931763,2.76633977890015,2.76632952690125,2.7663209438324,2.76631236076355,2.76630210876465,2.76629185676575,2.76628160476685,2.766273021698,2.76626253128052,2.76625227928162,2.76624202728271,2.76623344421387,2.76622152328491,2.76621294021606,2.76620435714722,2.76619410514832,2.76618385314941,2.76617360115051,2.76616311073303,2.76615452766418,2.76614427566528,2.76613402366638,2.76612544059753,2.76611518859863,2.76610493659973,2.76609468460083,2.76608443260193,2.76607418060303,2.7660653591156,2.76605677604675,2.76604652404785,2.76603627204895,2.76602602005005,2.76601576805115,2.76600551605225,2.7659969329834,2.76598811149597,2.76597619056702,2.76596593856812,2.76595735549927,2.76594877243042,2.76593685150146,2.76592826843262,2.76591801643372,2.76590776443481,2.76589751243591,2.76588869094849,2.76587843894958,2.76586985588074,2.76585960388184,2.76584768295288,2.76583909988403,2.76582884788513,2.76582026481628,2.76581001281738,2.7657995223999,2.765789270401,2.76578068733215,2.76577043533325,2.76576018333435,2.76574993133545,2.76573967933655,2.76573276519775,2.7657208442688,2.76571035385132,2.76570177078247,2.76569151878357,2.76568293571472,2.76567268371582,2.76566076278687,2.76565217971802,2.76564192771912,2.76563167572021,2.76562285423279,2.76561427116394,2.76560235023499,2.76559376716614,2.76558351516724,2.76557159423828,2.76556468009949,2.76555442810059,2.76554417610168,2.7655336856842,2.7655234336853,2.76551485061646,2.76550626754761,2.76549601554871,2.7654857635498,2.76547384262085,2.76546359062195,2.7654550075531,2.76544618606567,2.76543593406677,2.76542568206787,2.76541543006897,2.76540684700012,2.76539659500122,2.76538801193237,2.76537609100342,2.76536750793457,2.76535701751709,2.76534676551819,2.76533651351929
2.74638938903809,2.74638080596924,2.74637055397034,2.74636173248291,2.74635148048401,2.74634122848511,2.74633097648621,2.7463207244873,2.74631214141846,2.74630355834961,2.74629306793213,2.74628281593323,2.74627256393433,2.74626231193542,2.74625372886658,2.74624514579773,2.7462363243103,2.7462260723114,2.7462158203125,2.74620389938354,2.74619698524475,2.74618673324585,2.74617648124695,2.74616765975952,2.74615573883057,2.74614715576172,2.74613690376282,2.74612832069397,2.74611806869507,2.74610924720764,2.74609899520874,2.74608874320984,2.74607849121094,2.74606990814209,2.74605965614319,2.74605107307434,2.74604058265686,2.74603199958801,2.74602174758911,2.74601149559021,2.74600124359131,2.74599266052246,2.74598407745361,2.74597358703613,2.74596333503723,2.74595308303833,2.74594283103943,2.74593257904053,2.74592566490173,2.74591517448425,2.74590492248535,2.74589467048645,2.7458860874176,2.7458758354187,2.74586725234985,2.74585700035095,2.74584650993347,2.74583625793457,2.74582767486572,2.74581742286682,2.74580883979797,2.74579858779907,2.74578833580017,2.74577784538269,2.74576926231384,2.74575901031494,2.74575042724609,2.74574017524719,2.74573159217834,2.74571967124939,2.74571084976196,2.74570059776306,2.74569201469421,2.74568176269531,2.74567151069641,2.74566292762756,2.74565410614014,2.74564385414124,2.74563193321228,2.74562335014343,2.74561309814453,2.74560451507568,2.7455940246582,2.74558544158936,2.74557518959045,2.74556493759155,2.74555635452271,2.74554777145386,2.7455358505249,2.74552702903748,2.74551677703857,2.74550652503967,2.74549794197083,2.74548935890198,2.74547743797302,2.7454686164856,2.74545836448669,2.74544978141785,2.74543952941895,2.7454309463501,2.74541902542114,2.74541044235229,2.74539995193481,2.74539136886597,2.74538111686707,2.74537253379822,2.74536228179932,2.74535202980042,2.74534177780151,2.74533295631409,2.74532270431519,2.74531412124634,2.74530386924744,2.74529361724854,2.74528336524963,2.74527454376221,2.74526429176331,2.74525570869446,2.74524545669556,2.74523687362671,2.74522662162781,2.74521613121033,2.74520587921143,2.74519729614258,2.74518704414368,2.74517846107483,2.74516820907593,2.74515795707703,2.74514746665955,2.7451388835907,2.74513030052185,2.74512004852295,2.74510979652405,2.74509954452515,2.74508929252625,2.74508047103882,2.74507188796997,2.74506163597107,2.74505138397217,2.74504113197327,2.74503087997437,2.74502372741699,2.74501347541809,2.74500322341919,2.74499297142029,2.74498271942139,2.74497246742249,2.74496531486511,2.74495506286621,2.74494481086731,2.74493455886841,2.74492430686951,2.74491572380066,2.74490690231323,2.74489831924438,2.74488639831543,2.74487781524658,2.74486589431763,2.74485898017883,2.74484872817993,2.7448399066925,2.74482798576355,2.7448194026947,2.74481081962585,2.74480056762695,2.74479031562805,2.74478006362915,2.74476957321167,2.74476099014282,2.74475240707397,2.74474215507507,2.74473190307617,2.74472165107727,2.74471116065979,2.744704246521,2.74469399452209,2.74468541145325,2.74467349052429,2.74466323852539,2.74465298652649,2.74464583396912,2.74463558197021,2.74462699890137,2.74461507797241,2.74460482597351,2.74459457397461,2.74458742141724,2.74457883834839,2.74456691741943,2.74455666542053,2.74454641342163,2.74453949928284,2.74452900886536,2.74451875686646,2.74450850486755,2.74449992179871,2.74448800086975,2.74448108673096,2.74447059631348,2.74446034431458,2.74445009231567,2.74444150924683,2.74443125724792,2.74442267417908,2.74441242218018,2.7444019317627,2.74439167976379,2.74438309669495,2.7443745136261,2.7443642616272,2.7443540096283,2.74434351921082,2.74433493614197,2.74432635307312,2.74431610107422,2.74430418014526,2.74429559707642,2.74428510665894,2.74427652359009,2.74426794052124,2.74425768852234,2.74424576759338,2.74423718452454,2.74422693252563,2.74421977996826,2.74420952796936,2.74419927597046,2.74418902397156,2.74417877197266,2.74417018890381,2.74415969848633,2.74415111541748,2.74414086341858,2.74413228034973,2.74412035942078,2.74411177635193,2.74410128593445,2.7440927028656,2.7440824508667,2.74407386779785,2.74406361579895,2.74405336380005
2.72539639472961,2.72538614273071,2.72537732124329,2.72536706924438,2.72535848617554,2.72534823417664,2.72533798217773,2.72532749176025,2.72531890869141,2.7253086566925,2.72530007362366,2.72529315948486,2.72528100013733,2.72527074813843,2.72526216506958,2.72525358200073,2.72524333000183,2.7252345085144,2.72522258758545,2.7252140045166,2.7252037525177,2.72519683837891,2.72518634796143,2.72517776489258,2.72516584396362,2.72515726089478,2.72514867782593,2.72513818740845,2.72512793540955,2.7251193523407,2.7251091003418,2.7250988483429,2.72509169578552,2.72508144378662,2.72507119178772,2.72506260871887,2.72505235671997,2.72504210472107,2.72503328323364,2.72502303123474,2.72501277923584,2.72500419616699,2.72499537467957,2.72498512268066,2.72497653961182,2.72496628761292,2.72495603561401,2.72494721412659,2.72493863105774,2.72492837905884,2.72491812705994,2.72490787506104,2.72489929199219,2.72489047050476,2.72488188743591,2.72487163543701,2.72486138343811,2.72485113143921,2.72484064102173,2.72483205795288,2.72482347488403,2.72481322288513,2.72480440139771,2.7247941493988,2.7247838973999,2.72477531433105,2.72476673126221,2.72475624084473,2.72474598884583,2.72473573684692,2.72472715377808,2.72471857070923,2.7247097492218,2.7246994972229,2.724689245224,2.7246789932251,2.72467041015625,2.72466015815735,2.72465133666992,2.72464108467102,2.72463083267212,2.72462391853333,2.72461342811584,2.72460317611694,2.72459292411804,2.72458434104919,2.72457408905029,2.72456526756287,2.72455501556396,2.72454643249512,2.72453618049622,2.72452759742737,2.72451877593994,2.72450852394104,2.72449827194214,2.72448801994324,2.72447776794434,2.72446918487549,2.72446203231812,2.72445178031921,2.72444152832031,2.72443127632141,2.72442102432251,2.72441220283508,2.72440361976624,2.72439336776733,2.72438311576843,2.72437429428101,2.7243640422821,2.72435545921326,2.72434520721436,2.72433662414551,2.72432613372803,2.72431588172913,2.72430729866028,2.72429871559143,2.72428846359253,2.7242796421051,2.7242693901062,2.7242591381073,2.72425055503845,2.72424030303955,2.72423005104065,2.72422289848328,2.72421264648438,2.72420239448547,2.72419214248657,2.72418332099915,2.72417306900024,2.72416281700134,2.7241542339325,2.72414565086365,2.72413516044617,2.72412657737732,2.72411632537842,2.72410607337952,2.72409749031067,2.72408866882324,2.72407841682434,2.72406816482544,2.72405958175659,2.72404932975769,2.72404050827026,2.72403192520142,2.72402167320251,2.72400975227356,2.72400116920471,2.72399234771729,2.72398376464844,2.72397351264954,2.72396492958069,2.72395300865173,2.72394418716431,2.72393560409546,2.72392535209656,2.72391676902771,2.72390818595886,2.72389769554138,2.72388577461243,2.72387719154358,2.72386860847473,2.72385835647583,2.72384786605835,2.72384095191956,2.72383069992065,2.72382044792175,2.72381186485291,2.72380137443542,2.72379112243652,2.72378253936768,2.72377395629883,2.72376370429993,2.72375321388245,2.7237446308136,2.7237343788147,2.72372579574585,2.72371554374695,2.72370672225952,2.72369647026062,2.72368621826172,2.72367763519287,2.72366881370544,2.72365856170654,2.72364830970764,2.72363972663879,2.72362947463989,2.72362065315247,2.72361207008362,2.72360181808472,2.72358989715576,2.72358131408691,2.72357082366943,2.72356390953064,2.72355365753174,2.72354507446289,2.72353482246399,2.72352433204651,2.72351574897766,2.72350549697876,2.72349691390991,2.72348666191101,2.72347784042358,2.72346591949463,2.72345733642578,2.72344875335693,2.72343850135803,2.72342967987061,2.72342109680176,2.72341251373291,2.72340059280396,2.72339034080505,2.72338151931763,2.72337126731873,2.72336101531982,2.72335410118103,2.72334361076355,2.72333335876465,2.72332310676575,2.7233145236969,2.72330594062805,2.72329545021057,2.72328686714172,2.72327661514282,2.72326636314392,2.72325778007507,2.72324895858765,2.72323870658875,2.72322845458984,2.723219871521,2.72320961952209,2.72320079803467,2.72319054603577,2.72318196296692,2.72317171096802,2.72316145896912,2.72315263748169,2.72314405441284,2.72313380241394,2.72312355041504,2.72311496734619,2.72310447692871,2.72309589385986
2.70472097396851,2.7047107219696,2.70470190048218,2.70469164848328,2.70468306541443,2.70467448234558,2.7046639919281,2.7046537399292,2.70464515686035,2.7046365737915,2.70462775230408,2.70461750030518,2.70460724830627,2.70459699630737,2.70458841323853,2.7045795917511,2.70457100868225,2.70456075668335,2.70455050468445,2.70454168319702,2.70453143119812,2.70452451705933,2.70451426506042,2.70450377464294,2.7044951915741,2.7044849395752,2.70447468757629,2.70446753501892,2.70445728302002,2.70444703102112,2.70443844795227,2.70442795753479,2.704421043396,2.70441079139709,2.70440053939819,2.70439171791077,2.70438146591187,2.70437121391296,2.70436429977417,2.70435380935669,2.70434355735779,2.70433497428894,2.70432639122009,2.70431756973267,2.70430731773376,2.70429706573486,2.70428681373596,2.70427799224854,2.70426940917969,2.70426082611084,2.70424890518188,2.70424008369446,2.70423150062561,2.70422124862671,2.70421433448792,2.70420384407043,2.70419359207153,2.70418334007263,2.70417475700378,2.70416593551636,2.70415568351746,2.70414710044861,2.70413851737976,2.70412802696228,2.70411777496338,2.70410919189453,2.70410060882568,2.7040901184082,2.70408153533936,2.70407128334045,2.70406103134155,2.70405244827271,2.70404362678528,2.70403504371643,2.70402479171753,2.70401453971863,2.7040057182312,2.7039954662323,2.70398688316345,2.7039783000946,2.70396947860718,2.70395922660828,2.70394897460938,2.70394039154053,2.70392990112305,2.7039213180542,2.70391273498535,2.70390248298645,2.70389199256897,2.70388340950012,2.70387482643127,2.70386457443237,2.70385408401489,2.7038471698761,2.7038369178772,2.7038266658783,2.70381784439087,2.70380759239197,2.70379734039307,2.70379042625427,2.70378160476685,2.70377135276794,2.70376110076904,2.70375084877014,2.70374369621277,2.70373344421387,2.70372486114502,2.70371294021606,2.70370411872864,2.70369386672974,2.70368695259094,2.70367670059204,2.70366787910461,2.70365762710571,2.70364737510681,2.70364046096802,2.70362997055054,2.70361971855164,2.70361113548279,2.70360255241394,2.70359039306641,2.70358180999756,2.70357322692871,2.70356464385986,2.70355415344238,2.70354557037354,2.70353531837463,2.70352506637573,2.70351624488831,2.70350766181946,2.70349907875061,2.70348882675171,2.70348000526428,2.70346975326538,2.70346117019653,2.70345091819763,2.70344209671021,2.70343351364136,2.70342326164246,2.70341300964355,2.70340418815613,2.70339393615723,2.70338368415833,2.70337677001953,2.7033679485321,2.7033576965332,2.70334577560425,2.7033371925354,2.70333003997803,2.70331978797913,2.70330953598022,2.70330095291138,2.7032904624939,2.703280210495,2.7032732963562,2.7032630443573,2.70325422286987,2.70324397087097,2.70323371887207,2.70322513580322,2.7032163143158,2.70320606231689,2.70319747924805,2.7031888961792,2.70317840576172,2.70316815376282,2.70315957069397,2.70315098762512,2.70314049720764,2.70313191413879,2.70312333106995,2.70311307907104,2.70310258865356,2.70309400558472,2.70308375358582,2.70307517051697,2.70306634902954,2.70305609703064,2.70304751396179,2.70303726196289,2.70302677154541,2.70301985740662,2.70300960540771,2.70299935340881,2.70298886299133,2.70298027992249,2.70297169685364,2.70296311378479,2.70295262336731,2.70294404029846,2.70293378829956,2.70292520523071,2.70291471481323,2.70290613174438,2.70289754867554,2.70288729667664,2.70287680625916,2.70286822319031,2.70285964012146,2.70284938812256,2.70284056663513,2.70283031463623,2.70282006263733,2.70281314849854,2.70280265808105,2.70279407501221,2.70278382301331,2.7027735710144,2.70276474952698,2.70275616645813,2.70274591445923,2.70273566246033,2.7027268409729,2.70271825790405,2.70270967483521,2.7026994228363,2.70268893241882,2.70268034934998,2.70267176628113,2.70266151428223,2.7026526927948,2.7026424407959,2.70263385772705,2.70262360572815,2.70261311531067,2.70260620117188,2.70259761810303,2.70258736610413,2.70257520675659,2.70256662368774,2.7025580406189,2.70254945755005,2.70253896713257,2.70253038406372,2.70252013206482,2.70251154899597,2.70250105857849,2.70249247550964,2.7024838924408,2.70247507095337,2.70246315002441,2.70245456695557
2.68435645103455,2.6843478679657,2.6843376159668,2.68432903289795,2.68432021141052,2.68430995941162,2.68429970741272,2.68429088592529,2.68428230285645,2.6842737197876,2.6842634677887,2.68425631523132,2.68424439430237,2.68423581123352,2.68422532081604,2.68421673774719,2.68420815467834,2.6841995716095,2.68419075012207,2.68418049812317,2.68417024612427,2.68415975570679,2.68415284156799,2.68414425849915,2.68413400650024,2.68412518501282,2.68411493301392,2.68410468101501,2.68409585952759,2.68408894538879,2.68407869338989,2.68406820297241,2.68405961990356,2.68405103683472,2.68404078483582,2.68403196334839,2.68402338027954,2.68401312828064,2.68400263786316,2.68399572372437,2.68398547172546,2.68397688865662,2.68396806716919,2.68395781517029,2.68394756317139,2.68393874168396,2.68393015861511,2.68392157554626,2.68391132354736,2.68390250205994,2.68389225006104,2.68388366699219,2.68387484550476,2.68386459350586,2.68385601043701,2.68384718894958,2.68383860588074,2.68382835388184,2.68381810188293,2.68380928039551,2.68380069732666,2.68379211425781,2.68378162384033,2.68377137184143,2.68376278877258,2.68375253677368,2.68374538421631,2.68373680114746,2.68372654914856,2.68371605873108,2.68370747566223,2.68369722366333,2.68369007110596,2.68367981910706,2.68367123603821,2.68366098403931,2.68365216255188,2.68364357948303,2.68363332748413,2.6836245059967,2.68361592292786,2.68360567092896,2.68359541893005,2.68358659744263,2.68357801437378,2.68356943130493,2.68355894088745,2.6835503578186,2.6835401058197,2.68353152275085,2.68352270126343,2.68351244926453,2.68350386619568,2.68349504470825,2.6834864616394,2.6834762096405,2.6834659576416,2.68345713615417,2.68344855308533,2.68343997001648,2.68343114852905,2.68342089653015,2.68341064453125,2.68340182304382,2.68339157104492,2.68338465690613,2.68337440490723,2.68336391448975,2.6833553314209,2.68334674835205,2.68333792686462,2.68332934379578,2.68331909179688,2.68331027030945,2.68330001831055,2.68328976631165,2.6832811832428,2.68327236175537,2.68326377868652,2.68325352668762,2.68324303627014,2.68323612213135,2.68322587013245,2.6832172870636,2.68320846557617,2.68319821357727,2.68318796157837,2.683180809021,2.68317055702209,2.68316030502319,2.68315315246582,2.68314290046692,2.68313431739807,2.68312406539917,2.68311524391174,2.68310499191284,2.68309640884399,2.68308758735657,2.68307900428772,2.68306875228882,2.68306016921997,2.68304967880249,2.68303942680359,2.68303251266479,2.68302369117737,2.68301343917847,2.68300318717957,2.68299436569214,2.68298411369324,2.68297719955444,2.68296694755554,2.68295812606812,2.68294787406921,2.68293762207031,2.68292880058289,2.68292188644409,2.68291163444519,2.68290138244629,2.68289256095886,2.68288230895996,2.68287372589111,2.68286490440369,2.68285632133484,2.68284606933594,2.68283724784851,2.68282866477966,2.68281841278076,2.68280982971191,2.68280100822449,2.68279075622559,2.68278217315674,2.68277168273926,2.68276309967041,2.68275451660156,2.68274402618408,2.68273544311523,2.68272852897644,2.68271660804749,2.68270611763,2.68269920349121,2.68268895149231,2.68267846107483,2.68267154693604,2.68266296386719,2.68265104293823,2.68264222145081,2.68263363838196,2.68262505531311,2.68261623382568,2.68260598182678,2.68259572982788,2.68258690834045,2.68257665634155,2.68256974220276,2.68256092071533,2.68255066871643,2.68254041671753,2.68253183364868,2.68252301216125,2.68251276016235,2.68250417709351,2.68249535560608,2.68248510360718,2.68247652053833,2.68246793746948,2.682457447052,2.68244886398315,2.68244028091431,2.68242979049683,2.68242120742798,2.68241095542908,2.68240213394165,2.6823935508728,2.6823832988739,2.68237471580505,2.68236589431763,2.68235564231873,2.68234539031982,2.68233823776245,2.68232798576355,2.6823194026947,2.68231058120728,2.68230032920837,2.68229007720947,2.68228149414062,2.6822726726532,2.68226408958435,2.6822555065155,2.68224334716797,2.68223643302917,2.68222618103027,2.68221735954285,2.682208776474,2.68220019340515,2.6821882724762,2.68217945098877,2.68217086791992,2.68216228485107,2.68215346336365,2.68214321136475,2.6821346282959,2.682124376297
2.66429662704468,2.6642894744873,2.6642792224884,2.6642689704895,2.66426014900208,2.66425156593323,2.66424298286438,2.66423416137695,2.66422390937805,2.66421365737915,2.66420483589172,2.66419625282288,2.66418766975403,2.6641788482666,2.66417026519775,2.66416001319885,2.66415119171143,2.66414260864258,2.66413402557373,2.66412353515625,2.6641149520874,2.6641047000885,2.66409587860107,2.66408896446228,2.66407871246338,2.6640682220459,2.66405963897705,2.66404938697815,2.66404223442078,2.66403365135193,2.66402506828308,2.66401624679565,2.6640043258667,2.6639940738678,2.66398692131042,2.66397833824158,2.66396975517273,2.6639609336853,2.6639506816864,2.66394209861755,2.66393160820007,2.66392302513123,2.66391444206238,2.66390562057495,2.66389536857605,2.6638867855072,2.66387796401978,2.66386938095093,2.66385912895203,2.6638503074646,2.66384172439575,2.66383147239685,2.66382265090942,2.66381406784058,2.66380548477173,2.66379499435425,2.6637864112854,2.6637761592865,2.66376733779907,2.66375875473022,2.66375017166138,2.66374135017395,2.6637327671051,2.6637225151062,2.66371202468872,2.66370344161987,2.66369485855103,2.6636860370636,2.66367745399475,2.66366863250732,2.66365838050842,2.66364979743958,2.66364097595215,2.66363072395325,2.6636221408844,2.66361331939697,2.66360306739807,2.66359448432922,2.6635856628418,2.66357707977295,2.6635684967041,2.66355800628662,2.66354775428772,2.66353917121887,2.66353034973145,2.6635217666626,2.66351318359375,2.66350436210632,2.66349411010742,2.66348552703857,2.66347503662109,2.66346645355225,2.6634578704834,2.66344738006592,2.66344046592712,2.66343021392822,2.6634213924408,2.66341280937195,2.66340255737305,2.66339206695557,2.66338515281677,2.66337490081787,2.66336607933044,2.6633574962616,2.6633472442627,2.66334009170532,2.66333150863647,2.66332125663757,2.66331076622009,2.66330218315125,2.66329193115234,2.66328477859497,2.66327619552612,2.66326761245728,2.66325545310974,2.66324687004089,2.6632399559021,2.66322946548462,2.66322088241577,2.66321063041687,2.66320013999939,2.66319155693054,2.66318464279175,2.66317582130432,2.66316556930542,2.66315698623657,2.66314649581909,2.66313791275024,2.6631293296814,2.66311883926392,2.66311025619507,2.66310167312622,2.66309285163879,2.66308426856995,2.66307377815247,2.66306519508362,2.66305661201477,2.66304612159729,2.6630392074585,2.66302895545959,2.66301846504211,2.66300988197327,2.66300129890442,2.66299247741699,2.66298389434814,2.6629753112793,2.66296482086182,2.66295456886292,2.66294598579407,2.66293716430664,2.66292858123779,2.66291999816895,2.66290950775146,2.66290092468262,2.66289234161377,2.66288352012634,2.6628749370575,2.66286468505859,2.66285419464111,2.66284561157227,2.66283702850342,2.66282820701599,2.66281962394714,2.6628110408783,2.66280221939087,2.66279029846191,2.66278338432312,2.66277456283569,2.66276431083679,2.66275572776794,2.66274523735046,2.66273665428162,2.66272807121277,2.66271924972534,2.66270899772644,2.66270041465759,2.66269159317017,2.66268467903137,2.66267418861389,2.66266226768494,2.66265368461609,2.66264486312866,2.66263794898987,2.66262769699097,2.66261720657349,2.66260862350464,2.66260004043579,2.66259121894836,2.66258263587952,2.66257238388062,2.66256189346313,2.66255331039429,2.66254472732544,2.66253590583801,2.66252732276917,2.66251873970032,2.66250991821289,2.66249966621399,2.66249108314514,2.66248226165771,2.66247367858887,2.66246342658997,2.66245460510254,2.66244435310364,2.66243577003479,2.66242694854736,2.66241836547852,2.66240978240967,2.66239929199219,2.66238903999329,2.66238188743591,2.66237330436707,2.66236305236816,2.66235280036926,2.66234397888184,2.66233706474304,2.66232657432556,2.66231632232666,2.66230773925781,2.66229891777039,2.66229033470154,2.66228175163269,2.66227126121521,2.66226267814636,2.66225409507751,2.66224527359009,2.66223502159119,2.66222643852234,2.66221594810486,2.66220736503601,2.66219878196716,2.66218996047974,2.66218137741089,2.66217279434204,2.66216397285461,2.66215372085571,2.66214346885681,2.66213631629944,2.66212773323059,2.66211748123169,2.66210699081421,2.66209673881531
2.64453434944153,2.64452576637268,2.64451861381531,2.64450836181641,2.64449787139893,2.64449095726013,2.64447903633118,2.6444718837738,2.64446330070496,2.64445447921753,2.64444589614868,2.64443564414978,2.64442849159241,2.64441823959351,2.64440965652466,2.64439916610718,2.64439225196838,2.6443817615509,2.64437317848206,2.64436459541321,2.64435410499573,2.64434552192688,2.64433693885803,2.64432978630066,2.64431953430176,2.64431071281433,2.64430046081543,2.64429187774658,2.64428305625916,2.64427447319031,2.64426589012146,2.64425706863403,2.64424681663513,2.64423799514771,2.64422941207886,2.64422082901001,2.64421200752258,2.64420342445374,2.64419150352478,2.64418435096741,2.64417576789856,2.64416527748108,2.64415836334229,2.64414811134338,2.64413928985596,2.64413070678711,2.64412188529968,2.64411163330078,2.64410471916199,2.64409422874451,2.64408564567566,2.64407706260681,2.64406657218933,2.64405798912048,2.64404916763306,2.64404058456421,2.64403200149536,2.64402318000793,2.64401292800903,2.64400410652161,2.64399552345276,2.64398527145386,2.64397811889648,2.64396786689758,2.64395928382874,2.64395046234131,2.64394187927246,2.64393305778503,2.64392447471619,2.64391589164734,2.6439037322998,2.64389681816101,2.64388656616211,2.64387941360474,2.64387083053589,2.64386200904846,2.64385008811951,2.64384317398071,2.64383435249329,2.64382410049438,2.64381694793701,2.64380669593811,2.64379811286926,2.64378762245178,2.64378070831299,2.64377045631409,2.64376330375671,2.64375305175781,2.64374256134033,2.64373564720154,2.64372539520264,2.64371657371521,2.64370799064636,2.64369916915894,2.64368891716003,2.64368200302124,2.64367151260376,2.64366292953491,2.64365434646606,2.64364385604858,2.64363694190979,2.64362812042236,2.64361786842346,2.64360761642456,2.64360046386719,2.64359021186829,2.64358305931091,2.64357447624207,2.64356422424316,2.64355373382568,2.64354515075684,2.64353823661804,2.64352774620056,2.64352083206177,2.64350867271423,2.64350008964539,2.64349150657654,2.64348435401917,2.64347410202026,2.64346694946289,2.64345669746399,2.64344644546509,2.64343762397766,2.64342904090881,2.64342045783997,2.64341163635254,2.64340305328369,2.64339113235474,2.64338397979736,2.64337539672852,2.64336657524109,2.64335799217224,2.64334917068481,2.64333891868591,2.64333033561707,2.64332151412964,2.64331126213074,2.64330434799194,2.64329385757446,2.64328694343567,2.64327478408813,2.64326786994934,2.64325761795044,2.64325046539307,2.64324188232422,2.64323306083679,2.64322113990784,2.64321422576904,2.64320373535156,2.64319515228271,2.64318823814392,2.64317774772644,2.64316749572754,2.64315867424011,2.64315009117126,2.64314150810242,2.64313268661499,2.64312410354614,2.64311528205872,2.64310503005981,2.64309644699097,2.64308762550354,2.64307904243469,2.64307045936584,2.64305996894836,2.64305138587952,2.64304423332214,2.64303398132324,2.64302372932434,2.64301657676697,2.64300632476807,2.64299750328064,2.64298892021179,2.64298033714294,2.64296984672546,2.64296293258667,2.64295268058777,2.6429455280304,2.64293527603149,2.64292645454407,2.64291620254517,2.64290928840637,2.64289879798889,2.64289021492004,2.64287996292114,2.64287281036377,2.64286255836487,2.64285373687744,2.64284515380859,2.64283657073975,2.64282608032227,2.64281749725342,2.64280867576599,2.64280009269714,2.6427915096283,2.64278268814087,2.64277410507202,2.64276361465454,2.64275503158569,2.64274477958679,2.64273762702942,2.64272904396057,2.64272022247314,2.64270997047424,2.6427013874054,2.64269256591797,2.64268398284912,2.64267539978027,2.64266490936279,2.64265465736389,2.64264750480652,2.64263892173767,2.64262866973877,2.6426215171814,2.6426112651825,2.64260244369507,2.64259219169617,2.64258527755737,2.64257478713989,2.64256620407104,2.6425576210022,2.64254879951477,2.64253854751587,2.6425313949585,2.64252114295959,2.64251255989075,2.64250373840332,2.64249682426453,2.64248633384705,2.64247608184814,2.6424674987793,2.64245867729187,2.64245009422302,2.6424412727356,2.64243268966675,2.64242243766785,2.64241361618042,2.64240503311157,2.64239645004272,2.6423876285553,2.64237904548645,2.64236855506897
2.62506318092346,2.62505459785461,2.62504601478577,2.62503719329834,2.62502861022949,2.62501978874207,2.62501120567322,2.62500238418579,2.62499380111694,2.62498354911804,2.62497472763062,2.62496614456177,2.62495732307434,2.62494874000549,2.62493991851807,2.62493133544922,2.62492275238037,2.62491393089294,2.6249053478241,2.62489485740662,2.62488627433777,2.62487745285034,2.62486886978149,2.62486028671265,2.62485313415527,2.62484288215637,2.62483239173889,2.62482380867004,2.6248152256012,2.62480807304382,2.62479948997498,2.62479066848755,2.62478041648865,2.62477159500122,2.62476301193237,2.62475419044495,2.6247456073761,2.6247353553772,2.62472653388977,2.62471795082092,2.62471079826355,2.6247022151947,2.6246919631958,2.62468147277832,2.62467288970947,2.62466406822205,2.62465715408325,2.62464666366577,2.62463808059692,2.62462949752808,2.62462067604065,2.6246120929718,2.62460160255432,2.62459301948547,2.62458419799805,2.6245756149292,2.62456703186035,2.62455987930298,2.62454962730408,2.6245391368866,2.62453055381775,2.6245219707489,2.62451481819153,2.62450623512268,2.6244957447052,2.62448716163635,2.62447834014893,2.62446975708008,2.62446093559265,2.6244523525238,2.6244421005249,2.62443327903748,2.62442469596863,2.6244158744812,2.62440729141235,2.62439870834351,2.62438988685608,2.62438130378723,2.62437081336975,2.62436389923096,2.62435507774353,2.62434649467468,2.62433624267578,2.62432742118835,2.62432050704956,2.62431001663208,2.62430143356323,2.62429261207581,2.62428402900696,2.62427544593811,2.62426662445068,2.62425804138184,2.62424921989441,2.62424063682556,2.62423014640808,2.62422323226929,2.62421298027039,2.62420415878296,2.62419557571411,2.62418675422668,2.62417817115784,2.62417101860046,2.62416076660156,2.62415218353271,2.62414336204529,2.62413311004639,2.62412595748901,2.62411737442017,2.62410688400269,2.62409830093384,2.62408971786499,2.62408089637756,2.62407231330872,2.62406349182129,2.62405490875244,2.62404441833496,2.62403583526611,2.62402725219727,2.62401843070984,2.62400984764099,2.62400102615356,2.62399077415466,2.62398195266724,2.62397503852844,2.62396645545959,2.62395763397217,2.62394738197327,2.62393689155579,2.62392830848694,2.62392115592957,2.62391257286072,2.62390398979187,2.62389516830444,2.6238865852356,2.62387609481812,2.62386751174927,2.62385869026184,2.62385010719299,2.62384152412415,2.62383270263672,2.62382245063782,2.62381362915039,2.62380504608154,2.62379622459412,2.62378764152527,2.62378072738647,2.62377023696899,2.62375998497009,2.62375116348267,2.62374258041382,2.62373375892639,2.6237268447876,2.62371826171875,2.62370777130127,2.62369918823242,2.62368869781494,2.62368178367615,2.62367296218872,2.62366437911987,2.62365579605103,2.6236469745636,2.62363839149475,2.62362957000732,2.62362098693848,2.62361216545105,2.62360191345215,2.6235933303833,2.62358450889587,2.62357592582703,2.6235671043396,2.62355852127075,2.62354969978333,2.62353944778442,2.62353253364563,2.62352204322815,2.6235134601593,2.62350463867188,2.62349605560303,2.6234872341156,2.62347865104675,2.62347006797791,2.62345957756042,2.62345099449158,2.62344217300415,2.6234335899353,2.62342476844788,2.62341618537903,2.62340760231018,2.6233971118927,2.62339019775391,2.62338137626648,2.62337112426758,2.62336230278015,2.6233537197113,2.62334513664246,2.62333798408508,2.62332940101624,2.62331891059875,2.62331032752991,2.62330150604248,2.62329292297363,2.62328410148621,2.62327551841736,2.62326526641846,2.62325644493103,2.62324786186218,2.62323904037476,2.62323045730591,2.62322187423706,2.62321305274963,2.62320280075073,2.62319564819336,2.62318706512451,2.62317657470703,2.62316799163818,2.62315940856934,2.62314891815186,2.62314200401306,2.62313318252563,2.62312459945679,2.62311410903931,2.62310552597046,2.62309837341309,2.62308979034424,2.62308120727539,2.62307071685791,2.62306213378906,2.62305331230164,2.62304639816284,2.62303590774536,2.62302732467651,2.62301874160767,2.62300825119019,2.62300133705139,2.62299251556396,2.62298226356506,2.62297344207764,2.62296485900879,2.62295627593994,2.62294745445251,2.62293887138367,2.62292838096619
