0,0,0,0,0,0,0,0,0,0,0,0,0,0,0,0,0,0,2.76264572143555,2.76252770423889,2.76240801811218,2.76229166984558,2.76217198371887,2.76205396652222,2.76193594932556,2.76181793212891,2.76169967651367,2.76158332824707,2.76146364212036,2.76134538650513,2.76122736930847,2.76111078262329,2.76099276542664,2.76087284088135,2.76075649261475,2.76063823699951,2.76052021980286,2.76040363311768,2.76028370857239,2.76016545295715,2.76004886627197,2.75993084907532,2.75981259346008,2.75969433784485,2.75957608222961,2.75945782661438,2.75933957099915,2.75922298431396,2.75910472869873,2.75898814201355,2.75886964797974,2.7587513923645,2.75863480567932,2.75851655006409,2.75839638710022,2.75828146934509,2.7581615447998,2.75804471969604,2.75792646408081,2.75780963897705,2.75768971443176,2.757572889328,2.75745606422424,2.75733923912048,2.7572193145752,2.75710248947144,2.75698399543762,2.75686717033386,2.7567503452301,2.75663208961487,2.75651359558105,2.75639677047729,2.75627827644348,2.7561628818512,2.75604438781738,2.75592589378357,2.75580739974976,2.75569224357605,2.75557374954224,2.7554566860199,2.75533819198608,2.7552227973938,2.75510263442993,2.75498747825623,2.75486707687378,2.75475192070007,2.75463318824768,2.7545177936554,2.75439763069153,2.75428056716919,2.75416350364685,2.75404667854309,2.7539279460907,2.75381255149841,2.75369381904602,2.75357675552368,2.75345969200134,2.753342628479,2.75322389602661,2.75310683250427,2.75298976898193,2.75287103652954,2.75275564193726,2.75263690948486,2.75251960754395,2.75240254402161,2.75228548049927,2.75216841697693,2.75205278396606,2.75193238258362,2.75181674957275,2.75169801712036,2.7515823841095,2.75146508216858,2.75134801864624,2.75123071670532,2.7511134147644,2.75099635124207,2.7508807182312,2.75076174736023,2.75064444541931,2.75052714347839,2.75040984153748,2.75029253959656,2.75017690658569,2.75005793571472,2.74994230270386,2.74982500076294,2.74970936775208,2.7495903968811,2.74947452545166,2.74935722351074,2.74923992156982,2.74912261962891,2.74900674819946,2.74888777732849,2.74877190589905,2.74865460395813,2.74853873252869,2.74841976165771,2.74830389022827,2.74818634986877,2.74807071685791,2.74795317649841,2.74783563613892,2.74771976470947,2.74760389328003,2.74748492240906,2.74736905097961,2.74725317955017,2.74713563919067,2.74701809883118,2.74690222740173,2.74678468704224,2.74666690826416,2.74655103683472,2.74643516540527,2.74631595611572,2.74620151519775,2.74608397483826,2.74596810340881,2.74585032463074,2.74573445320129,2.74561667442322,2.74550080299377,2.7453830242157,2.74526715278625,2.74514937400818,2.74503493309021,2.74491739273071,2.74479961395264,2.74468350410461,2.74456739425659,2.74444961547852,2.74433517456055,2.74421763420105,2.74409985542297,2.74398374557495,2.7438690662384,2.74374985694885,2.7436351776123,2.74351739883423,2.74340128898621,2.74328517913818,2.74316883087158,2.74305105209351,2.74293661117554,2.74281859397888,2.74270248413086,2.74258613586426,2.74247002601624,2.74235200881958,2.74223589897156,2.74211955070496,2.74200320243835,2.74188709259033,2.74177074432373,2.74165272712708,2.74153804779053,2.7414219379425,2.7413055896759,2.74118757247925,2.74107456207275,2.7409565448761,2.7408401966095,2.7407238483429,2.74060916900635,2.74049091339111,2.74037623405457,2.74025821685791,2.74014353752136,2.74002695083618,2.73991060256958,2.73979425430298,2.73967933654785,2.7395613193512,2.73944473266602,2.73933005332947,2.73921346664429,2.73909711837769,2.7389805316925,2.73886561393738,2.73874926567078,2.7386326789856,2.73851609230042,2.73839950561523,2.73828315734863,2.73816823959351,2.73805165290833,2.73793506622314,2.73782014846802,2.73770356178284,2.73758697509766,2.73747181892395,2.73735523223877,2.73723864555359,2.73712372779846,2.73700714111328,2.73689198493958,2.73677539825439,2.73666024208069,2.73654198646545,2.73642706871033,2.73631191253662,2.73619532585144,2.73608016967773,2.73596501350403,2.73584675788879
0,0,0,0,0,0,0,0,2.74432587623596,2.74420714378357,2.74409341812134,2.74397468566895,2.74385929107666,2.74374222755432,2.74362516403198,2.74350810050964,2.74339270591736,2.74327564239502,2.74316024780273,2.74304151535034,2.74292755126953,2.74281048774719,2.74269342422485,2.74257779121399,2.74246072769165,2.74234366416931,2.74222803115845,2.74211263656616,2.74199533462524,2.74187803268433,2.74176263809204,2.74164533615112,2.74152970314026,2.74141430854797,2.74129700660706,2.74118137359619,2.74106407165527,2.74094676971436,2.74083280563354,2.74071383476257,2.74059987068176,2.74048256874084,2.74036693572998,2.74024963378906,2.7401340007782,2.74001669883728,2.73990082740784,2.73978352546692,2.73966956138611,2.73955368995667,2.73943638801575,2.73932075500488,2.73920488357544,2.73908758163452,2.73897337913513,2.73885607719421,2.73874020576477,2.73862433433533,2.73850703239441,2.73839116096497,2.73827695846558,2.73815941810608,2.73804354667664,2.73792624473572,2.73781204223633,2.73769450187683,2.73757863044739,2.73746275901794,2.7373468875885,2.737229347229,2.73711490631104,2.73699736595154,2.73688149452209,2.73676562309265,2.73664951324463,2.73653364181519,2.7364194393158,2.73630166053772,2.73618578910828,2.73607134819031,2.73595547676086,2.73583936691284,2.7357234954834,2.73560738563538,2.73549127578735,2.73537683486938,2.73525929450989,2.73514318466187,2.7350287437439,2.73491263389587,2.73479652404785,2.73468065261841,2.73456597328186,2.73444843292236,2.73433375358582,2.73421764373779,2.73410153388977,2.73398542404175,2.73387098312378,2.73375487327576,2.73364019393921,2.73352408409119,2.73340797424316,2.73329162597656,2.73317718505859,2.73306083679199,2.73294472694397,2.73282837867737,2.7327139377594,2.73259925842285,2.73248291015625,2.73236680030823,2.73225212097168,2.73213577270508,2.73202109336853,2.73190498352051,2.73179030418396,2.73167395591736,2.73155927658081,2.73144292831421,2.73132824897766,2.73121190071106,2.73109722137451,2.73098087310791,2.73086452484131,2.73074960708618,2.73063492774963,2.73051857948303,2.73040366172791,2.73028898239136,2.7301709651947,2.73005771636963,2.72994136810303,2.7298264503479,2.7297101020813,2.72959518432617,2.72948026657104,2.7293655872345,2.72924900054932,2.72913408279419,2.72901773452759,2.72890448570251,2.72878789901733,2.72867298126221,2.72855806350708,2.72844314575195,2.72832655906677,2.7282133102417,2.72809672355652,2.72798180580139,2.72786521911621,2.72775173187256,2.72763681411743,2.72752022743225,2.72740530967712,2.72729015350342,2.72717356681824,2.72706031799316,2.7269434928894,2.72683024406433,2.72671508789062,2.7266001701355,2.72648334503174,2.72636985778809,2.72625494003296,2.72613978385925,2.72602462768555,2.72590947151184,2.72579455375671,2.72568106651306,2.7255642414093,2.7254490852356,2.72533392906189,2.72521877288818,2.72510528564453,2.72499012947083,2.72487497329712,2.72475957870483,2.72464442253113,2.72452926635742,2.72441411018372,2.72429895401001,2.72418522834778,2.72407174110413,2.72395467758179,2.72384119033813,2.72372579574585,2.72361063957214,2.72349524497986,2.72338175773621,2.72326469421387,2.72315263748169,2.72303581237793,2.7229220867157,2.72280669212341,2.72269296646118,2.72257614135742,2.72246241569519,2.72234869003296,2.72223329544067,2.72211790084839,2.72200417518616,2.72188878059387,2.72177314758301,2.72165942192078,2.72154569625854,2.72143030166626,2.72131633758545,2.72120094299316,2.72108721733093,2.72097182273865,2.72085785865784,2.72074246406555,2.72062849998474,2.72051310539246,2.72039747238159,2.72028350830078,2.72016978263855,2.72005414962769,2.71994018554688,2.71982645988464,2.71971249580383,2.71959686279297,2.71948289871216,2.71936726570129,2.71925497055054,2.71913933753967,2.71902370452881,2.718909740448,2.71879577636719,2.71868014335632,2.71856617927551,2.7184522151947,2.71833801269531,2.71822237968445,2.71811008453369,2.71799445152283,2.71788024902344,2.71776628494263,2.71765208244324,2.71753644943237,2.71742391586304,2.71730828285217,2.71719408035278,2.71708011627197,2.71696591377258,2.71685171127319,2.71673917770386
2.72601461410522,2.72590017318726,2.72578430175781,2.72566986083984,2.72555541992188,2.72544097900391,2.72532653808594,2.72521042823792,2.72509431838989,2.72498154640198,2.72486543655396,2.72475099563599,2.72463655471802,2.72452044487,2.72440600395203,2.72429132461548,2.72417688369751,2.72406077384949,2.72394609451294,2.72383332252502,2.723717212677,2.72360253334045,2.72348642349243,2.72337174415588,2.72325706481934,2.72314429283142,2.72302794456482,2.72291326522827,2.7227988243103,2.72268414497375,2.72256779670715,2.72245478630066,2.72233867645264,2.72222542762756,2.72210931777954,2.72199463844299,2.72187995910645,2.72176671028137,2.72165036201477,2.72153568267822,2.72142267227173,2.72130632400513,2.72119164466858,2.72107839584351,2.7209620475769,2.72084903717041,2.72073411941528,2.72062110900879,2.72050452232361,2.72038984298706,2.72027492523193,2.72016024589539,2.72004532814026,2.71993207931519,2.71981739997864,2.71970248222351,2.71958923339844,2.71947431564331,2.71935796737671,2.71924614906311,2.71912980079651,2.71901488304138,2.71890163421631,2.71878671646118,2.71867179870605,2.7185583114624,2.71844339370728,2.7183301448822,2.71821522712708,2.71810030937195,2.71798515319824,2.71787357330322,2.71775698661804,2.71764349937439,2.71752858161926,2.71741509437561,2.71730017662048,2.71718502044678,2.7170717716217,2.716956615448,2.71684312820435,2.71672964096069,2.71661472320557,2.71649956703186,2.71638607978821,2.71627259254456,2.71615600585938,2.7160439491272,2.71592903137207,2.71581530570984,2.71570038795471,2.71558666229248,2.71547150611877,2.71535801887512,2.71524286270142,2.71513104438782,2.71501564979553,2.71490216255188,2.71478700637817,2.71467328071594,2.71455812454224,2.71444463729858,2.71433091163635,2.7142174243927,2.71410202980042,2.71398997306824,2.71387481689453,2.7137610912323,2.71364569664001,2.71353387832642,2.71341848373413,2.7133047580719,2.71319103240967,2.71307730674744,2.71296191215515,2.71284818649292,2.71273446083069,2.71262073516846,2.71250700950623,2.71239328384399,2.71227955818176,2.71216750144958,2.7120521068573,2.71193647384644,2.7118227481842,2.71171069145203,2.71159505844116,2.71148300170898,2.71136903762817,2.71125531196594,2.71113991737366,2.7110276222229,2.71091198921204,2.71079993247986,2.71068596839905,2.71057200431824,2.71045827865601,2.71034598350525,2.71023035049438,2.71011638641357,2.71000409126282,2.70989012718201,2.70977449417114,2.70966386795044,2.70954823493958,2.70943427085876,2.70932197570801,2.70920634269714,2.70909404754639,2.70898008346558,2.70886754989624,2.70875191688538,2.70863962173462,2.70852541923523,2.70841145515442,2.70829892158508,2.70818662643433,2.70807099342346,2.70795845985413,2.70784425735474,2.70773196220398,2.70761609077454,2.70750522613525,2.70738959312439,2.70727705955505,2.70716285705566,2.70705032348633,2.70693612098694,2.7068235874176,2.70670938491821,2.70659685134888,2.70648431777954,2.70637011528015,2.70625591278076,2.70614337921143,2.70602917671204,2.7059166431427,2.70580220222473,2.7056896686554,2.70557546615601,2.70546436309814,2.70535016059875,2.70523595809937,2.70512318611145,2.70501065254211,2.70489621162415,2.70478200912476,2.70466923713684,2.70455646514893,2.70444226264954,2.70432949066162,2.70421671867371,2.70410394668579,2.7039897441864,2.70387697219849,2.70376420021057,2.70365142822266,2.70353698730469,2.70342421531677,2.70331144332886,2.70319867134094,2.70308423042297,2.70297288894653,2.70285844802856,2.70274567604065,2.70263290405273,2.70251989364624,2.70240545272827,2.70229411125183,2.70218133926392,2.70206689834595,2.7019522190094,2.70184254646301,2.70172643661499,2.70161509513855,2.70150232315063,2.70138931274414,2.70127630233765,2.70116353034973,2.70105051994324,2.70093750953674,2.70082449913025,2.70071148872375,2.70059704780579,2.70048546791077,2.70037245750427,2.70025944709778,2.70014643669128,2.70003342628479,2.6999204158783,2.69980907440186,2.69969606399536,2.69958281517029,2.69946980476379,2.6993567943573,2.69924354553223,2.69913220405579,2.69901895523071,2.69890594482422,2.69879293441772,2.69868135452271,2.69856810569763,2.69845342636108,2.69834184646606,2.69823026657104,2.6981155872345,2.69800400733948,2.6978907585144
2.70704221725464,2.70692873001099,2.70681381225586,2.70670032501221,2.70658850669861,2.70647501945496,2.70636129379272,2.70624780654907,2.70613431930542,2.70601916313171,2.70590734481812,2.70579552650452,2.70568180084229,2.70556664466858,2.70545482635498,2.70533967018127,2.7052276134491,2.70511412620544,2.70500206947327,2.70488691329956,2.70477485656738,2.70466113090515,2.7045476436615,2.70443391799927,2.70432186126709,2.70420670509338,2.70409631729126,2.70398259162903,2.7038688659668,2.70375514030457,2.70364308357239,2.70352935791016,2.70341563224792,2.70330357551575,2.70318984985352,2.70307612419128,2.70296406745911,2.70285034179688,2.70273661613464,2.70262432098389,2.70251059532166,2.70239686965942,2.70228624343872,2.70217084884644,2.70205855369568,2.7019464969635,2.70183253288269,2.70171880722046,2.7016065120697,2.70149421691895,2.70138049125671,2.70126819610596,2.7011559009552,2.70104050636292,2.70092988014221,2.7008159160614,2.70070362091064,2.70059132575989,2.70047736167908,2.70036339759827,2.70024943351746,2.70013880729675,2.700026512146,2.69991254806519,2.69980025291443,2.69968605041504,2.69957375526428,2.69946146011353,2.69934892654419,2.69923496246338,2.69912433624268,2.69901013374329,2.69889783859253,2.69878363609314,2.69867300987244,2.69855713844299,2.69844794273376,2.69833397865295,2.69821977615356,2.69810891151428,2.69799661636353,2.69788241386414,2.6977698802948,2.69765734672546,2.69754481315613,2.69743227958679,2.69731974601746,2.69720554351807,2.69709300994873,2.69698214530945,2.69686961174011,2.69675540924072,2.69664454460144,2.69653177261353,2.69641923904419,2.6963050365448,2.69619393348694,2.69607973098755,2.69596862792969,2.6958544254303,2.69574356079102,2.6956307888031,2.69551801681519,2.69540548324585,2.69529438018799,2.6951801776886,2.69506907463074,2.69495630264282,2.69484353065491,2.69473075866699,2.69461965560913,2.69450712203979,2.69439435005188,2.69428157806396,2.6941704750061,2.69405603408813,2.69394493103027,2.69383192062378,2.69372081756592,2.69360637664795,2.69349694252014,2.69338250160217,2.69327116012573,2.69315838813782,2.69304704666138,2.69293260574341,2.6928231716156,2.69270849227905,2.69259738922119,2.6924843788147,2.69237303733826,2.69225859642029,2.6921489238739,2.69203591346741,2.69192314147949,2.69181180000305,2.69170045852661,2.69158577919006,2.69147610664368,2.69136333465576,2.69125032424927,2.69113898277283,2.69102740287781,2.69091439247131,2.69080138206482,2.69069004058838,2.69057869911194,2.69046568870544,2.690354347229,2.69024109840393,2.69012975692749,2.69001841545105,2.68990516662598,2.68979382514954,2.68968224525452,2.68956923484802,2.689457654953,2.68934631347656,2.68923473358154,2.68912148475647,2.68901014328003,2.68889689445496,2.68878531455994,2.68867540359497,2.68856406211853,2.68845081329346,2.68833923339844,2.68822598457336,2.68811440467834,2.68800282478333,2.68789124488831,2.68777799606323,2.68766641616821,2.68755483627319,2.68744301795959,2.68733143806458,2.68721985816956,2.68710827827454,2.68699479103088,2.68688488006592,2.68677163124084,2.68665981292725,2.68654823303223,2.68643808364868,2.68632483482361,2.68621301651001,2.68610119819641,2.68598961830139,2.68587779998779,2.68576598167419,2.6856541633606,2.68554425239563,2.68543243408203,2.68532061576843,2.68520712852478,2.68509864807129,2.68498516082764,2.68487334251404,2.68476152420044,2.68464970588684,2.68453788757324,2.6844277381897,2.68431568145752,2.68420386314392,2.68409204483032,2.6839816570282,2.68386816978455,2.683758020401,2.68364596366882,2.68353581428528,2.6834237575531,2.6833119392395,2.68319845199585,2.68308973312378,2.6829776763916,2.68286728858948,2.68275547027588,2.6826434135437,2.68253135681152,2.6824209690094,2.6823091506958,2.68219876289368,2.68208503723145,2.68197464942932,2.68186259269714,2.68175053596497,2.68164014816284,2.68152976036072,2.68141746520996,2.68130707740784,2.68119502067566,2.68108463287354,2.68097257614136,2.6808602809906,2.68074989318848,2.68063926696777,2.6805272102356,2.68041682243347,2.68030619621277,2.68019413948059,2.68008184432983,2.67997288703918,2.67985916137695,2.67974853515625,2.6796395778656,2.67952752113342,2.67941522598267,2.67930459976196
2.68833136558533,2.68821716308594,2.68810629844666,2.68799376487732,2.68788290023804,2.6877703666687,2.68765950202942,2.68754696846008,2.68743419647217,2.68732333183289,2.68721079826355,2.68709993362427,2.68698883056641,2.68687462806702,2.68676352500916,2.68665266036987,2.68654155731201,2.68642735481262,2.68631625175476,2.68620538711548,2.68609428405762,2.6859815120697,2.68587064743042,2.6857578754425,2.68564677238464,2.68553400039673,2.68542289733887,2.68531179428101,2.68519926071167,2.68508815765381,2.68497681617737,2.68486571311951,2.68475294113159,2.68464183807373,2.68452906608582,2.68441963195801,2.68430685997009,2.68419551849365,2.68408441543579,2.68397164344788,2.68386030197144,2.68374919891357,2.68363785743713,2.68352675437927,2.68341541290283,2.68330264091492,2.68318963050842,2.68308019638062,2.68296718597412,2.68285584449768,2.68274641036987,2.68263506889343,2.68252205848694,2.68241238594055,2.68229937553406,2.68218970298767,2.68207669258118,2.68196535110474,2.6818540096283,2.68174433708191,2.68163132667542,2.68151998519897,2.68141031265259,2.68129873275757,2.68118572235107,2.68107604980469,2.68096470832825,2.68085312843323,2.68074178695679,2.68063044548035,2.68051886558533,2.68040752410889,2.68029761314392,2.6801860332489,2.68007302284241,2.67996311187744,2.679851770401,2.67974019050598,2.67963027954102,2.679518699646,2.67940711975098,2.67929577827454,2.67918586730957,2.67907428741455,2.67896437644958,2.67885279655457,2.67874121665955,2.67862963676453,2.67851805686951,2.67840623855591,2.67829632759094,2.67818641662598,2.67807483673096,2.67796301841736,2.67785143852234,2.67774152755737,2.67762970924377,2.67751979827881,2.67740797996521,2.67729806900024,2.67718625068665,2.67707633972168,2.67696285247803,2.67685437202454,2.67674279212952,2.67663264274597,2.67652082443237,2.67640900611877,2.67629909515381,2.67618894577026,2.67607712745667,2.67596697807312,2.67585682868958,2.67574501037598,2.67563319206238,2.67552304267883,2.67541122436523,2.67530250549316,2.67519068717957,2.67508053779602,2.67496871948242,2.6748583316803,2.67474818229675,2.67463803291321,2.67452597618103,2.67441582679749,2.67430377006531,2.67419362068176,2.67408323287964,2.67397308349609,2.67386102676392,2.67375230789185,2.67364048957825,2.67352843284607,2.673419713974,2.67330932617188,2.67319750785828,2.67308855056763,2.67297673225403,2.6728663444519,2.67275595664978,2.67264556884766,2.67253351211548,2.67242479324341,2.67231273651123,2.67220211029053,2.6720917224884,2.67198133468628,2.67187094688416,2.67176198959351,2.67164993286133,2.6715395450592,2.6714289188385,2.67131853103638,2.67120790481567,2.67109751701355,2.67098689079285,2.6708779335022,2.67076587677002,2.67065525054932,2.67054486274719,2.67043423652649,2.67032361030579,2.67021465301514,2.67010235786438,2.66999340057373,2.66988301277161,2.6697723865509,2.66966342926025,2.6695511341095,2.66944050788879,2.66933131217957,2.66922068595886,2.66911172866821,2.66900110244751,2.66889047622681,2.66877961158752,2.66866898536682,2.66856002807617,2.66844916343689,2.66833853721619,2.66822934150696,2.6681170463562,2.66800808906555,2.66789889335632,2.66778802871704,2.66767573356628,2.66756820678711,2.66745734214783,2.66734838485718,2.6672375202179,2.66712832450867,2.66701579093933,2.66690826416016,2.66679739952087,2.66668510437012,2.66657567024231,2.66646504402161,2.6663556098938,2.66624641418457,2.66613721847534,2.66602635383606,2.66591548919678,2.6658046245575,2.66569519042969,2.66558599472046,2.66547679901123,2.66536569595337,2.66525483131409,2.66514539718628,2.66503620147705,2.66492509841919,2.66481590270996,2.66470646858215,2.66459560394287,2.66448450088501,2.66437673568726,2.66426420211792,2.66415643692017,2.66404700279236,2.6639358997345,2.66382646560669,2.66371703147888,2.66360592842102,2.66349816322327,2.66338706016541,2.6632776260376,2.66316819190979,2.66305875778198,2.66294765472412,2.66283988952637,2.66272878646851,2.66261911392212,2.66250801086426,2.66239857673645,2.66228890419006,2.66217947006226,2.66206979751587,2.66196036338806,2.66185069084167,2.66174125671387,2.66163158416748,2.66152215003967,2.66141247749329,2.6613028049469,2.66119170188904,2.66108369827271,2.66097235679626
2.66987371444702,2.66976380348206,2.66965389251709,2.66954398155212,2.6694324016571,2.66932249069214,2.66921234130859,2.66910243034363,2.66899251937866,2.6688826084137,2.6687707901001,2.66866254806519,2.66855072975159,2.66844081878662,2.66833090782166,2.66822075843811,2.66810917854309,2.6680006980896,2.667888879776,2.66777896881104,2.66767048835754,2.667560338974,2.66744709014893,2.66734004020691,2.66722846031189,2.66711831092834,2.6670081615448,2.66689801216125,2.66678786277771,2.66667938232422,2.66656923294067,2.66645741462708,2.66634726524353,2.66623854637146,2.66612839698792,2.66601824760437,2.66590809822083,2.66579794883728,2.66568756103516,2.66557908058167,2.66546702384949,2.665358543396,2.66524815559387,2.66513967514038,2.6650276184082,2.66491913795471,2.66480875015259,2.66469836235046,2.66458821296692,2.66447782516479,2.66436743736267,2.6642587184906,2.66414856910706,2.66403818130493,2.66392779350281,2.66381740570068,2.66370868682861,2.66359829902649,2.66348958015442,2.66337919235229,2.66326880455017,2.66315841674805,2.6630494594574,2.66293907165527,2.6628303527832,2.6627197265625,2.66260933876038,2.66250061988831,2.66239166259766,2.66228127479553,2.66217231750488,2.66206192970276,2.66195297241211,2.66184258460999,2.66173362731934,2.66162157058716,2.66151428222656,2.66140365600586,2.66129469871521,2.66118264198303,2.66107511520386,2.66096472740173,2.66085410118103,2.66074514389038,2.66063618659973,2.66052556037903,2.66041827201843,2.66030597686768,2.66019701957703,2.6600878238678,2.65997886657715,2.65986824035645,2.6597592830658,2.65965008735657,2.65954113006592,2.65943050384521,2.65932130813599,2.65921235084534,2.65910315513611,2.65899252891541,2.65888500213623,2.65877437591553,2.6586651802063,2.65855431556702,2.65844702720642,2.65833616256714,2.65822696685791,2.65811610221863,2.65800857543945,2.6578996181488,2.65779042243958,2.65768122673035,2.65757036209106,2.65746116638184,2.65735363960266,2.65724277496338,2.65713357925415,2.65702414512634,2.65691494941711,2.65680408477783,2.65669655799866,2.65658712387085,2.65647792816162,2.65636873245239,2.65625929832458,2.65615010261536,2.6560423374176,2.65593314170837,2.65582203865051,2.65571451187134,2.65560507774353,2.65549564361572,2.65538644790649,2.65527701377869,2.65516924858093,2.6550567150116,2.65495038032532,2.65483951568604,2.65473175048828,2.65462231636047,2.65451455116272,2.65440344810486,2.6542956829071,2.6541862487793,2.65407848358154,2.65396881103516,2.65385937690735,2.65374994277954,2.65364217758179,2.65353274345398,2.65342307090759,2.65331363677979,2.65320420265198,2.65309619903564,2.65298676490784,2.6528787612915,2.6527693271637,2.65266132354736,2.65255165100098,2.65244221687317,2.65233254432678,2.65222454071045,2.65211510658264,2.65200543403625,2.65189743041992,2.65178775787354,2.6516797542572,2.65157008171082,2.65146207809448,2.6513524055481,2.65124440193176,2.65113472938538,2.65102672576904,2.65091705322266,2.65081071853638,2.65069937705994,2.65059280395508,2.65048146247864,2.65037512779236,2.65026545524597,2.65015721321106,2.65004754066467,2.64993929862976,2.64983129501343,2.64972138404846,2.64961338043213,2.64950513839722,2.64939546585083,2.64928722381592,2.64917898178101,2.64906907081604,2.64895939826965,2.64885282516479,2.64874291419983,2.64863467216492,2.64852643013,2.64841818809509,2.64830827713013,2.64820170402527,2.6480917930603,2.64798355102539,2.64787364006042,2.64776706695557,2.6476571559906,2.64755034446716,2.6474404335022,2.64733219146729,2.64722394943237,2.64711546897888,2.64700555801392,2.64689874649048,2.64678883552551,2.64668202400208,2.64657378196716,2.64646530151367,2.64635539054871,2.64624857902527,2.64614009857178,2.64603018760681,2.64592170715332,2.64581322669983,2.64570474624634,2.64559626579285,2.64548945426941,2.64537954330444,2.64527106285095,2.64516258239746,2.64505410194397,2.64494729042053,2.64483857154846,2.64473009109497,2.64462161064148,2.64451479911804,2.64440631866455,2.64429759979248,2.64418911933899,2.6440806388855,2.64397192001343,2.64386510848999,2.64375638961792,2.64364790916443,2.64353942871094,2.64343070983887,2.64332365989685,2.64321517944336,2.64310812950134,2.64299941062927,2.64288926124573
2.65167260169983,2.65156197547913,2.65145468711853,2.65134572982788,2.65123677253723,2.65112781524658,2.65101885795593,2.6509096622467,2.65080070495605,2.65069174766541,2.65058422088623,2.65047359466553,2.65036463737488,2.6502571105957,2.65014815330505,2.65003895759583,2.64993166923523,2.649822473526,2.64971327781677,2.64960598945618,2.64949512481689,2.64938592910767,2.64928007125854,2.6491711139679,2.64906191825867,2.64895272254944,2.64884519577026,2.64873433113098,2.64862847328186,2.64851927757263,2.6484100818634,2.64830088615417,2.648193359375,2.64808416366577,2.64797496795654,2.64786553382874,2.64775800704956,2.64764881134033,2.64754104614258,2.64743185043335,2.64732432365417,2.64721488952637,2.64710736274719,2.64699792861938,2.64689183235168,2.6467809677124,2.64667320251465,2.64656400680542,2.64645624160767,2.64634680747986,2.64624094963074,2.64612984657288,2.64602208137512,2.64591431617737,2.64580655097961,2.64569711685181,2.64559102058411,2.6454815864563,2.64537215232849,2.64526438713074,2.64515662193298,2.64504718780518,2.64493775367737,2.64483141899109,2.64472365379333,2.64461255073547,2.64450788497925,2.64439678192139,2.64428901672363,2.6441810131073,2.64407324790955,2.64396381378174,2.64385581016541,2.64374780654907,2.64363837242126,2.64353203773499,2.64342260360718,2.64331459999084,2.64320659637451,2.64310026168823,2.64298915863037,2.64288282394409,2.64277315139771,2.64266514778137,2.64255714416504,2.64244914054871,2.64234113693237,2.64223313331604,2.64212512969971,2.64201855659485,2.64190888404846,2.64180088043213,2.6416928768158,2.64158487319946,2.6414783000946,2.64137029647827,2.64126062393188,2.64115405082703,2.64104437828064,2.64093780517578,2.64082980155945,2.64072155952454,2.6406135559082,2.64050698280334,2.64039707183838,2.64028906822205,2.64018249511719,2.64007425308228,2.63996601104736,2.6398594379425,2.63974976539612,2.63964319229126,2.63953495025635,2.63942670822144,2.63931846618652,2.63921022415161,2.6391019821167,2.63899374008179,2.63888692855835,2.63878035545349,2.63867044448853,2.63856387138367,2.63845562934875,2.63834881782532,2.63823890686035,2.63813376426697,2.638023853302,2.63791728019714,2.63781046867371,2.63770222663879,2.6375937461853,2.63748693466187,2.63737869262695,2.63727021217346,2.63716340065002,2.63705682754517,2.63694667816162,2.63684153556824,2.63673305511475,2.63662457466125,2.63651776313782,2.63640928268433,2.63630247116089,2.63619565963745,2.63608717918396,2.63597869873047,2.63587188720703,2.63576507568359,2.6356565952301,2.63554954528809,2.63544106483459,2.63533592224121,2.63522577285767,2.6351203918457,2.63501024246216,2.6349048614502,2.63479804992676,2.63468933105469,2.6345808506012,2.63447546958923,2.63436698913574,2.63425993919373,2.63415288925171,2.63404440879822,2.63393568992615,2.63383030891418,2.63372159004211,2.6336145401001,2.63350915908813,2.63340067863464,2.63329195976257,2.63318490982056,2.63307785987854,2.632972240448,2.63286209106445,2.63275647163391,2.63264942169189,2.63254070281982,2.63243532180786,2.63232660293579,2.6322193145752,2.63211226463318,2.63200497627258,2.63189792633057,2.63179087638855,2.63168358802795,2.63157653808594,2.6314709186554,2.63136196136475,2.63125491142273,2.63114762306213,2.63104057312012,2.63093161582947,2.63082599639893,2.63071870803833,2.63061141967773,2.63050436973572,2.63039875030518,2.63028979301453,2.63018250465393,2.63007688522339,2.62996959686279,2.62986063957214,2.62975645065308,2.62964749336243,2.62954020500183,2.62943291664124,2.62932562828064,2.62921833992004,2.62911415100098,2.62900519371033,2.62889790534973,2.62879204750061,2.62868475914001,2.62857556343079,2.6284716129303,2.62836241722107,2.62825655937195,2.62814927101135,2.62804341316223,2.62793588638306,2.62783026695251,2.62772107124329,2.62761521339417,2.62750625610352,2.62740039825439,2.62729454040527,2.6271870136261,2.62707948684692,2.62697529792786,2.62686610221863,2.62676024436951,2.62665271759033,2.62654495239258,2.62643909454346,2.62633323669434,2.62622570991516,2.62611961364746,2.62601208686829,2.62590622901917,2.62579846382141,2.62569260597229,2.62558507919312,2.62547731399536,2.62537145614624,2.62526369094849,2.62515926361084,2.62505006790161
2.6337149143219,2.63360691070557,2.63350057601929,2.63339257240295,2.63328456878662,2.63317823410034,2.63307023048401,2.63296389579773,2.63285565376282,2.63274931907654,2.63263964653015,2.63253331184387,2.63242673873901,2.63231873512268,2.63221216201782,2.63210582733154,2.63199591636658,2.6318895816803,2.63178300857544,2.63167500495911,2.63156676292419,2.63146185874939,2.63135361671448,2.6312472820282,2.63114070892334,2.63103246688843,2.63092422485352,2.63081932067871,2.6307110786438,2.63060450553894,2.63049626350403,2.63038969039917,2.63028144836426,2.6301748752594,2.63006830215454,2.62996006011963,2.62985491752625,2.62974667549133,2.62963843345642,2.62953352928162,2.62942504882812,2.62931847572327,2.62921166419983,2.62910509109497,2.62899684906006,2.62889003753662,2.62878322601318,2.62867665290833,2.62856817245483,2.62846302986145,2.62835478782654,2.6282479763031,2.62814116477966,2.62803435325623,2.62792611122131,2.62782096862793,2.62771248817444,2.627605676651,2.62750053405762,2.62739372253418,2.62728524208069,2.6271800994873,2.62707328796387,2.62696623802185,2.62685775756836,2.62675261497498,2.62664413452148,2.62653875350952,2.62643027305603,2.62632513046265,2.62621808052063,2.62611126899719,2.62600421905518,2.62589740753174,2.62579035758972,2.62568521499634,2.62557649612427,2.6254711151123,2.62536430358887,2.62525725364685,2.62515187263489,2.62504506111145,2.62493801116943,2.62483263015747,2.6247239112854,2.62461686134338,2.62450981140137,2.6244044303894,2.62429738044739,2.62419199943542,2.62408328056335,2.62397789955139,2.62387084960938,2.62376523017883,2.62365651130676,2.62355279922485,2.62344408035278,2.62333679199219,2.62322974205017,2.62312436103821,2.62301874160767,2.62291169166565,2.62280440330505,2.62269735336304,2.6225917339325,2.62248611450195,2.62238073348999,2.62227177619934,2.62216782569885,2.62205910682678,2.62195348739624,2.6218478679657,2.6217405796051,2.62163329124451,2.62152767181396,2.62142205238342,2.62131476402283,2.62120747566223,2.62110352516174,2.62099456787109,2.62089061737061,2.62078332901001,2.62067604064941,2.62057042121887,2.62046456336975,2.62035727500916,2.62025165557861,2.62014412879944,2.6200385093689,2.61993265151978,2.61982703208923,2.61972117424011,2.61961388587952,2.6195080280304,2.61940240859985,2.61929488182068,2.61918902397156,2.61908173561096,2.61897587776184,2.61887001991272,2.6187641620636,2.61865830421448,2.61855244636536,2.61844515800476,2.61833930015564,2.61823344230652,2.6181275844574,2.6180214881897,2.61791563034058,2.6178081035614,2.61770391464233,2.61759805679321,2.61749219894409,2.61738443374634,2.61727857589722,2.6171727180481,2.6170666217804,2.61696076393127,2.61685490608215,2.61674880981445,2.61664295196533,2.61653685569763,2.61643075942993,2.61632490158081,2.61622047424316,2.61611294746399,2.61600685119629,2.61590075492859,2.61579465866089,2.61568713188171,2.61558437347412,2.61547660827637,2.61537051200867,2.61526608467102,2.61515998840332,2.61505222320557,2.61494946479797,2.61484169960022,2.61473727226257,2.61462950706482,2.61452484130859,2.61441874504089,2.61431264877319,2.61420631408691,2.61410188674927,2.61399412155151,2.61388945579529,2.61378335952759,2.61367869377136,2.61357259750366,2.61346793174744,2.61336016654968,2.61325550079346,2.61314940452576,2.61304306983948,2.61293840408325,2.61283230781555,2.61272597312927,2.6126229763031,2.61251497268677,2.61240863800049,2.61230397224426,2.61219930648804,2.6120913028717,2.61198830604553,2.6118803024292,2.61177563667297,2.61166930198669,2.61156463623047,2.61145997047424,2.61135363578796,2.61124706268311,2.61114239692688,2.6110360622406,2.6109311580658,2.61082482337952,2.61071991920471,2.61061525344849,2.61051034927368,2.6104040145874,2.6102991104126,2.61019277572632,2.61008787155151,2.60998153686523,2.60987663269043,2.60977172851562,2.60966682434082,2.60956048965454,2.60945391654968,2.60934901237488,2.60924410820007,2.60913920402527,2.60903429985046,2.60892605781555,2.6088228225708,2.60871624946594,2.60861134529114,2.60850644111633,2.60839986801147,2.60829472541809,2.60819149017334,2.60808491706848,2.60798001289368,2.60787320137024,2.60776829719543,2.60766315460205,2.60755825042725,2.60745334625244
2.61599898338318,2.61589384078979,2.61578679084778,2.61567974090576,2.61557602882385,2.61546897888184,2.61536335945129,2.61525630950928,2.61515259742737,2.61504554748535,2.61494016647339,2.61483311653137,2.61472749710083,2.61462211608887,2.61451816558838,2.61440944671631,2.61430549621582,2.61420011520386,2.61409306526184,2.6139874458313,2.61388182640076,2.61377644538879,2.61367082595825,2.61356520652771,2.61345815658569,2.61335253715515,2.61324691772461,2.61314129829407,2.61303567886353,2.61293029785156,2.61282467842102,2.61271739006042,2.61261343955994,2.61250782012939,2.61240220069885,2.61229491233826,2.61219072341919,2.61208343505859,2.61198115348816,2.61187386512756,2.61176800727844,2.6116623878479,2.61155676841736,2.61144948005676,2.61134696006775,2.61123967170715,2.61113381385803,2.61102819442749,2.61092400550842,2.61081671714783,2.61071419715881,2.61060667037964,2.61050248146057,2.61039686203003,2.61029100418091,2.61018514633179,2.61007928848267,2.60997366905212,2.609867811203,2.60976195335388,2.60965943336487,2.60955190658569,2.60944604873657,2.6093418598175,2.60923600196838,2.60913014411926,2.60902571678162,2.60891819000244,2.60881400108337,2.60870814323425,2.60860371589661,2.60849785804749,2.60839366912842,2.60828757286072,2.60818338394165,2.6080756187439,2.60797142982483,2.60786533355713,2.60776281356812,2.60765504837036,2.60755062103271,2.60744476318359,2.60734033584595,2.60723423957825,2.60713005065918,2.60702395439148,2.60691952705383,2.60681343078613,2.60670900344849,2.60660290718079,2.60649847984314,2.60639405250549,2.60628795623779,2.60618185997009,2.6060791015625,2.60597133636475,2.6058669090271,2.60576224327087,2.60565781593323,2.60555171966553,2.6054470539093,2.6053409576416,2.60523653030396,2.60513186454773,2.60502576828003,2.6049211025238,2.60481667518616,2.60471200942993,2.60460758209229,2.60450124740601,2.60439658164978,2.60429048538208,2.60418581962585,2.60408115386963,2.6039764881134,2.60387206077576,2.60376739501953,2.60366106033325,2.60355639457703,2.6034517288208,2.60334706306458,2.6032407283783,2.60313606262207,2.60303139686584,2.60292506217957,2.60282182693481,2.60271549224854,2.60261249542236,2.60250616073608,2.60240292549133,2.60229659080505,2.60219192504883,2.60208702087402,2.6019823551178,2.60187745094299,2.60177445411682,2.60166788101196,2.60156321525574,2.60145831108093,2.60135340690613,2.6012487411499,2.60114550590515,2.60103893280029,2.60093402862549,2.60083103179932,2.60072612762451,2.60061955451965,2.6005163192749,2.6004114151001,2.60030651092529,2.60020160675049,2.60009670257568,2.59999179840088,2.59988856315613,2.59978342056274,2.59967851638794,2.59957361221313,2.59947037696838,2.599365234375,2.5992603302002,2.59915542602539,2.59905195236206,2.5989453792572,2.59884357452393,2.59873700141907,2.59863352775574,2.59852862358093,2.5984251499176,2.59831857681274,2.59821510314941,2.59810996055603,2.59800505638123,2.59789991378784,2.59779810905457,2.59769129753113,2.5975878238678,2.59748268127441,2.59737920761108,2.59727430343628,2.59717059135437,2.59706401824951,2.59696197509766,2.59685683250427,2.59675168991089,2.59664821624756,2.59654307365417,2.59643793106079,2.59633588790894,2.59623074531555,2.59612560272217,2.59602022171021,2.59591841697693,2.59581303596497,2.59570956230164,2.59560418128967,2.59550070762634,2.59539532661438,2.59529185295105,2.59518647193909,2.59508275985718,2.59497928619385,2.59487557411194,2.59477019309998,2.59466648101807,2.5945611000061,2.59445762634277,2.59435391426086,2.59425020217896,2.59414482116699,2.59404110908508,2.59393739700317,2.59383201599121,2.59372806549072,2.59362435340881,2.59351897239685,2.593416929245,2.59331154823303,2.59320759773254,2.59310221672058,2.59300017356873,2.59289455413818,2.59279084205627,2.59268689155579,2.59258317947388,2.59247756004333,2.59237551689148,2.59226989746094,2.59216618537903,2.59206390380859,2.59195995330811,2.59185457229614,2.59175229072571,2.59164667129517,2.59154272079468,2.59143877029419,2.59133648872375,2.59123086929321,2.59112858772278,2.59102320671082,2.59091901779175,2.59081506729126,2.59071111679077,2.59060716629028,2.59050321578979,2.59039926528931,2.59029698371887,2.59019112586975,2.59008884429932
2.59852004051208,2.59841561317444,2.59831118583679,2.59820675849915,2.59810090065002,2.59799790382385,2.59789347648621,2.59778904914856,2.59768462181091,2.59758019447327,2.59747576713562,2.59737133979797,2.59726691246033,2.59716248512268,2.59705781936646,2.59695339202881,2.59684896469116,2.59674429893494,2.59663987159729,2.59653544425964,2.59643077850342,2.59632802009583,2.5962233543396,2.59611868858337,2.59601259231567,2.5959095954895,2.59580516815186,2.59570217132568,2.5955958366394,2.59549283981323,2.59538841247559,2.59528374671936,2.59517908096313,2.59507608413696,2.59497141838074,2.59486675262451,2.59476041793823,2.59465909004211,2.59455275535583,2.59444975852966,2.59434509277344,2.59424185752869,2.59413719177246,2.59403252601624,2.59392952919006,2.59382462501526,2.59371995925903,2.59361696243286,2.593510389328,2.59340906143188,2.59330415725708,2.59320116043091,2.5930962562561,2.59299159049988,2.59288668632507,2.59278345108032,2.5926787853241,2.59257555007935,2.59247064590454,2.59236741065979,2.59226274490356,2.59215950965881,2.59205460548401,2.59195137023926,2.59184646606445,2.5917432308197,2.5916383266449,2.59153509140015,2.5914318561554,2.59132695198059,2.59122204780579,2.59112024307251,2.59101533889771,2.59091210365295,2.5908088684082,2.59070372581482,2.59059882164001,2.59049701690674,2.59039044380188,2.59028720855713,2.5901837348938,2.59008049964905,2.58997535705566,2.58987355232239,2.58976864814758,2.58966517448425,2.58956170082092,2.58945846557617,2.58935332298279,2.58925151824951,2.58914470672607,2.58904147148132,2.58893799781799,2.58883619308472,2.58873105049133,2.58862590789795,2.58852410316467,2.58841896057129,2.58831524848938,2.5882134437561,2.58810830116272,2.58800482749939,2.58790135383606,2.58779764175415,2.58769249916077,2.58759069442749,2.58748698234558,2.5873818397522,2.58728003501892,2.58717632293701,2.58707118034363,2.58696913719177,2.58686542510986,2.58676028251648,2.58665823936462,2.58655476570129,2.58645105361938,2.58634734153748,2.58624362945557,2.58614015579224,2.58603477478027,2.58593440055847,2.58582901954651,2.5857253074646,2.58562159538269,2.58551955223083,2.58541417121887,2.58531212806702,2.58520841598511,2.5851047039032,2.58500075340271,2.58489871025085,2.58479332923889,2.58469128608704,2.58458733558655,2.58448362350464,2.58437991142273,2.58427762985229,2.58417391777039,2.58407163619995,2.58396792411804,2.58386397361755,2.5837619304657,2.58365797996521,2.58355402946472,2.58344864845276,2.58334636688232,2.58324241638184,2.58313870429993,2.58303642272949,2.58293414115906,2.58282852172852,2.58272624015808,2.58262395858765,2.58252000808716,2.58241605758667,2.58231377601624,2.58220982551575,2.58210754394531,2.58200359344482,2.58190131187439,2.58179712295532,2.58169484138489,2.5815908908844,2.58148860931396,2.5813844203949,2.58128046989441,2.5811779499054,2.58107566833496,2.58097171783447,2.58087086677551,2.58076500892639,2.58066272735596,2.58055853843689,2.58045768737793,2.58035206794739,2.58024954795837,2.58014869689941,2.58004474639893,2.57994055747986,2.57983803749084,2.57973551750183,2.57963299751282,2.57952880859375,2.57942628860474,2.57932209968567,2.57922124862671,2.57911705970764,2.57901453971863,2.57891035079956,2.5788094997406,2.57870507240295,2.57860255241394,2.57849836349487,2.57839751243591,2.57829475402832,2.57819056510925,2.57808637619019,2.57798361778259,2.57788109779358,2.57777833938599,2.57767581939697,2.57757306098938,2.57746863365173,2.57736611366272,2.57726502418518,2.57716226577759,2.57705807685852,2.57695698738098,2.57685256004333,2.5767514705658,2.57664704322815,2.57654428482056,2.57644152641296,2.57633876800537,2.57623600959778,2.57613325119019,2.57603049278259,2.575927734375,2.57582497596741,2.57572388648987,2.57562112808228,2.57551646232605,2.57541537284851,2.57531261444092,2.57520961761475,2.5751051902771,2.57500410079956,2.57490110397339,2.5747983455658,2.57469701766968,2.57459259033203,2.57448959350586,2.57438826560974,2.5742871761322,2.57418251037598,2.57408118247986,2.57397675514221,2.57387542724609,2.57377243041992,2.57366943359375,2.57356810569763,2.57346510887146,2.57336235046387,2.57326102256775,2.57315802574158,2.57305502891541,2.57295203208923
2.58127450942993,2.5811710357666,2.58106780052185,2.58096432685852,2.58086085319519,2.58075737953186,2.58065414428711,2.58055233955383,2.58045053482056,2.58034539222717,2.5802435874939,2.58014011383057,2.58003664016724,2.57993483543396,2.57983112335205,2.57972598075867,2.57962417602539,2.57952070236206,2.57941889762878,2.57931518554688,2.57921171188354,2.57910990715027,2.57900619506836,2.57890272140503,2.5787992477417,2.57869553565979,2.57859539985657,2.57849168777466,2.57838821411133,2.57828450202942,2.57818245887756,2.57807898521423,2.57797861099243,2.57787322998047,2.57777118682861,2.57766914367676,2.57756567001343,2.57746195793152,2.57735991477966,2.57725620269775,2.5771541595459,2.57705211639404,2.57694840431213,2.57684469223022,2.57674264907837,2.57664060592651,2.57653665542603,2.57643461227417,2.57633256912231,2.57622885704041,2.57612657546997,2.57602453231812,2.57592082023621,2.57581686973572,2.57571482658386,2.57561087608337,2.57551050186157,2.57540822029114,2.57530450820923,2.57520055770874,2.57509994506836,2.57499623298645,2.57489395141602,2.57479166984558,2.57468938827515,2.57458567619324,2.5744833946228,2.57437944412231,2.57427716255188,2.5741765499115,2.57407426834106,2.57397031784058,2.57386803627014,2.57376575469971,2.57366347312927,2.57355785369873,2.57345867156982,2.57335472106934,2.5732524394989,2.57315015792847,2.57304787635803,2.57294368743896,2.57284307479858,2.57274055480957,2.57263827323914,2.57253432273865,2.57243347167969,2.5723295211792,2.57222867012024,2.57212615013123,2.57202219963074,2.57192134857178,2.57181882858276,2.57171487808228,2.57161402702332,2.5715115070343,2.57140898704529,2.57130646705627,2.57120394706726,2.57110142707825,2.57099890708923,2.57089805603027,2.57079553604126,2.57069134712219,2.57059049606323,2.57048630714417,2.57038545608521,2.57028293609619,2.57018184661865,2.57007765769958,2.56997680664062,2.56987261772156,2.56977152824402,2.56967067718506,2.56956791877747,2.5694637298584,2.56936430931091,2.56926012039185,2.56915903091431,2.56905627250671,2.5689537525177,2.56885099411011,2.56874990463257,2.56864738464355,2.56854462623596,2.56844353675842,2.56834244728088,2.56823825836182,2.5681369304657,2.56803441047668,2.56793165206909,2.56783056259155,2.56772947311401,2.56762647628784,2.56752371788025,2.56742095947266,2.56732153892517,2.56721711158752,2.56711769104004,2.56701302528381,2.56691193580627,2.56681084632874,2.56670784950256,2.56660509109497,2.56650543212891,2.56640267372131,2.56629991531372,2.5661985874176,2.56609725952148,2.56599450111389,2.56589317321777,2.56579041481018,2.56568908691406,2.56558609008789,2.56548476219177,2.56538200378418,2.56528067588806,2.56517767906189,2.56507802009583,2.56497502326965,2.56487369537354,2.56477236747742,2.56466937065125,2.56456804275513,2.56446671485901,2.56436371803284,2.56426405906677,2.5641610622406,2.5640594959259,2.56395649909973,2.56385517120361,2.56375360488892,2.56365060806274,2.56354928016663,2.56344771385193,2.56334805488586,2.56324481964111,2.56314182281494,2.56304025650024,2.56293892860413,2.56283736228943,2.56273579597473,2.56263446807861,2.56253290176392,2.56242966651917,2.56232976913452,2.5622284412384,2.56212687492371,2.56202363967896,2.56192207336426,2.56182050704956,2.56172060966492,2.56161737442017,2.56151747703552,2.56141424179077,2.56131434440613,2.56121110916138,2.56111097335815,2.5610077381134,2.56090784072876,2.56080627441406,2.56070446968079,2.56060123443604,2.56050300598145,2.56039953231812,2.56029796600342,2.56019616127014,2.5600962638855,2.55999279022217,2.55989289283752,2.55979108810425,2.55968952178955,2.55958771705627,2.55948758125305,2.55938410758972,2.55928254127502,2.5591824054718,2.55908226966858,2.55897879600525,2.55887866020203,2.55877685546875,2.55867505073547,2.5585732460022,2.55847311019897,2.55836963653564,2.55827116966248,2.55816769599915,2.55806756019592,2.55796575546265,2.55786538124084,2.55776357650757,2.55766344070435,2.55756163597107,2.55745959281921,2.55735945701599,2.55725741386414,2.55715560913086,2.55705380439758,2.55695343017578,2.55685305595398,2.55674958229065,2.5566508769989,2.55654907226562,2.55644702911377,2.55634498596191,2.55624461174011,2.55614447593689,2.55604410171509
2.56425595283508,2.56415176391602,2.56405115127563,2.56394863128662,2.56384801864624,2.56374549865723,2.56364464759827,2.56354236602783,2.56344151496887,2.56333899497986,2.56323671340942,2.56313419342041,2.5630350112915,2.56293249130249,2.56282997131348,2.56272912025452,2.5626266002655,2.56252408027649,2.56242489814758,2.56232070922852,2.56221985816956,2.5621190071106,2.56201648712158,2.56191396713257,2.56181454658508,2.56171202659607,2.56160950660706,2.56151008605957,2.5614058971405,2.56130647659302,2.56120228767395,2.56110286712646,2.56100034713745,2.56089949607849,2.56079840660095,2.56069564819336,2.5605947971344,2.56049370765686,2.56039261817932,2.56029009819031,2.56018900871277,2.56008791923523,2.55998516082764,2.55988574028015,2.55978298187256,2.55968189239502,2.55958080291748,2.55947971343994,2.55937695503235,2.55927586555481,2.55917477607727,2.55907368659973,2.55897259712219,2.5588698387146,2.55876851081848,2.558669090271,2.5585663318634,2.55846524238586,2.55836224555969,2.55826282501221,2.55815982818604,2.55806040763855,2.55795907974243,2.55785799026489,2.55775499343872,2.55765390396118,2.55755257606506,2.557452917099,2.55735182762146,2.55725049972534,2.55714750289917,2.55704784393311,2.55694508552551,2.55684375762939,2.55674409866333,2.55664277076721,2.55653977394104,2.55644011497498,2.55633878707886,2.55623912811279,2.55613613128662,2.55603647232056,2.55593347549438,2.55583357810974,2.55573225021362,2.5556309223175,2.55552959442139,2.55542969703674,2.55532836914062,2.55522680282593,2.55512547492981,2.55502414703369,2.55492258071899,2.55482292175293,2.55472135543823,2.55462002754211,2.55452013015747,2.55441856384277,2.5543155670166,2.55421733856201,2.55411577224731,2.55401420593262,2.55391430854797,2.5538113117218,2.55371141433716,2.55360984802246,2.55350995063782,2.55340838432312,2.55330681800842,2.55320692062378,2.55310535430908,2.55300378799438,2.55290389060974,2.55280208587646,2.55270051956177,2.55260229110718,2.55249905586243,2.5523989200592,2.55229902267456,2.55219745635986,2.55209565162659,2.55199575424194,2.55189418792725,2.55179405212402,2.55169224739075,2.5515923500061,2.55149054527283,2.55139231681824,2.55128884315491,2.55118870735168,2.55108880996704,2.55098867416382,2.55088686943054,2.55078673362732,2.55068492889404,2.55058479309082,2.5504846572876,2.55038452148438,2.55028128623962,2.5501811504364,2.55008244514465,2.54998064041138,2.5498788356781,2.54977869987488,2.54967856407166,2.54957842826843,2.54947805404663,2.54937791824341,2.54927444458008,2.54917597770691,2.54907393455505,2.54897379875183,2.54887509346008,2.54877328872681,2.54867124557495,2.54857277870178,2.54847073554993,2.5483705997467,2.5482702255249,2.54817152023315,2.54806971549988,2.54796934127808,2.54786729812622,2.54776692390442,2.54766654968262,2.54756641387939,2.54746603965759,2.54736733436584,2.54726529121399,2.54716491699219,2.54706287384033,2.54696416854858,2.54686379432678,2.5467631816864,2.5466628074646,2.54656410217285,2.546462059021,2.54636168479919,2.54626107215881,2.54616069793701,2.54606032371521,2.54595971107483,2.54585933685303,2.5457603931427,2.54565834999084,2.54555940628052,2.54545903205872,2.54535841941833,2.54525637626648,2.54515910148621,2.54505681991577,2.54495811462402,2.54485583305359,2.54475522041321,2.54465627670288,2.54455423355103,2.5444552898407,2.54435467720032,2.54425406455994,2.54415345191956,2.54405450820923,2.54395389556885,2.54385495185852,2.54375267028809,2.54365348815918,2.5435528755188,2.54345226287842,2.54335331916809,2.54325270652771,2.5431535243988,2.54305291175842,2.54295229911804,2.54285144805908,2.5427508354187,2.54265332221985,2.54255104064941,2.54245185852051,2.54235291481018,2.54225373268127,2.54215145111084,2.54205060005188,2.54195141792297,2.54185223579407,2.54174995422363,2.54165244102478,2.54155158996582,2.54145073890686,2.54135179519653,2.54125094413757,2.54115176200867,2.54105257987976,2.5409517288208,2.54085087776184,2.54075169563293,2.54065227508545,2.54055142402649,2.54045224189758,2.54035139083862,2.54025220870972,2.54015278816223,2.54005193710327,2.53995275497437,2.53985333442688,2.53975248336792,2.53965330123901,2.53955221176147,2.53945302963257,2.53935360908508
2.54745769500732,2.54735970497131,2.54725813865662,2.5471568107605,2.54705715179443,2.54695725440979,2.54685592651367,2.54675602912903,2.54665637016296,2.54655480384827,2.54645347595215,2.54635524749756,2.54625225067139,2.5461540222168,2.5460524559021,2.54595279693604,2.54585123062134,2.54575300216675,2.54565143585205,2.54555010795593,2.54545021057129,2.54535031318665,2.545250415802,2.54515218734741,2.54504895210266,2.54494905471802,2.54484915733337,2.54474925994873,2.54464745521545,2.54454922676086,2.54444766044617,2.54434776306152,2.5442476272583,2.54414772987366,2.54404616355896,2.54394769668579,2.54384613037109,2.5437479019165,2.54364609718323,2.54354619979858,2.54344606399536,2.54334616661072,2.5432460308075,2.54314589500427,2.54304599761963,2.54294586181641,2.54284572601318,2.54274415969849,2.54264569282532,2.54254388809204,2.54244542121887,2.5423436164856,2.54224514961243,2.54214334487915,2.54204487800598,2.54194474220276,2.54184460639954,2.54174447059631,2.54164600372314,2.54154419898987,2.5414457321167,2.54134392738342,2.54124522209167,2.5411434173584,2.54104495048523,2.54094290733337,2.54084444046021,2.54074430465698,2.54064393043518,2.54054379463196,2.54044508934021,2.54034328460693,2.54024457931519,2.54014420509338,2.54004573822021,2.53994369506836,2.53984498977661,2.53974485397339,2.53964447975159,2.53954577445984,2.53944706916809,2.53934502601624,2.53924632072449,2.53914618492126,2.53904747962952,2.53894710540771,2.53884816169739,2.53874635696411,2.53864908218384,2.53854703903198,2.53844833374023,2.53834795951843,2.53824925422668,2.5381486415863,2.5380482673645,2.5379478931427,2.53785061836243,2.53774857521057,2.53764986991882,2.5375509262085,2.53745055198669,2.53734993934631,2.53725123405457,2.53715062141418,2.53705334663391,2.53695130348206,2.53685235977173,2.53675365447998,2.5366530418396,2.53655409812927,2.53645348548889,2.53635454177856,2.53625559806824,2.53615522384644,2.53605628013611,2.53595566749573,2.5358567237854,2.53575611114502,2.53565716743469,2.53555822372437,2.53545904159546,2.53535842895508,2.5352578163147,2.53516054153442,2.5350615978241,2.53496074676514,2.53486180305481,2.53476285934448,2.53466200828552,2.5345630645752,2.53446388244629,2.53436326980591,2.53426575660706,2.53416514396667,2.53406596183777,2.53396701812744,2.53386783599854,2.53376698493958,2.53366804122925,2.53356885910034,2.53346967697144,2.53337049484253,2.5332715511322,2.53317070007324,2.53307318687439,2.53297233581543,2.53287482261658,2.53277397155762,2.53267478942871,2.53257393836975,2.53247475624084,2.53237724304199,2.53227782249451,2.5321786403656,2.53207945823669,2.53198027610779,2.53188109397888,2.5317816734314,2.53168249130249,2.53158164024353,2.5314838886261,2.53138470649719,2.53128528594971,2.5311861038208,2.53108668327332,2.53098750114441,2.53088974952698,2.53079032897949,2.53068947792053,2.5305917263031,2.53049230575562,2.53039145469666,2.5302951335907,2.53019428253174,2.53009486198425,2.52999544143677,2.52989768981934,2.52979826927185,2.52969884872437,2.52959942817688,2.52950167655945,2.52940058708191,2.52930283546448,2.52920341491699,2.52910399436951,2.52900433540344,2.52890825271606,2.52880716323853,2.52870917320251,2.52860808372498,2.5285120010376,2.52841234207153,2.52831292152405,2.52821350097656,2.52811551094055,2.52801585197449,2.527916431427,2.52781844139099,2.52771902084351,2.52761936187744,2.52751970291138,2.52742195129395,2.52732396125793,2.52722430229187,2.52712631225586,2.52702665328979,2.52692723274231,2.5268292427063,2.52673125267029,2.52663159370422,2.52653360366821,2.52643394470215,2.52633571624756,2.52623605728149,2.52613806724548,2.52603840827942,2.52594041824341,2.52584075927734,2.5257408618927,2.52564454078674,2.52554321289062,2.52544498443604,2.52534699440002,2.52524733543396,2.52514910697937,2.52505111694336,2.52495288848877,2.52485322952271,2.52475333213806,2.52465510368347,2.52455711364746,2.52445721626282,2.52435898780823,2.52426099777222,2.52416276931763,2.52406454086304,2.52396464347839,2.5238664150238,2.52376818656921,2.52366995811462,2.52357006072998,2.52347350120544,2.5233736038208,2.52327537536621,2.52317714691162,2.52307891845703,2.52297902107239,2.5228807926178
2.53088140487671,2.53078126907349,2.53068256378174,2.53058362007141,2.53048491477966,2.53038454055786,2.53028750419617,2.53018712997437,2.53008842468262,2.52998781204224,2.52989077568054,2.52979040145874,2.52969312667847,2.52959275245667,2.52949404716492,2.52939510345459,2.52929639816284,2.52919578552246,2.52909874916077,2.52899813652039,2.52889919281006,2.52880048751831,2.52870154380798,2.52860116958618,2.52850222587585,2.52840495109558,2.52830600738525,2.52820539474487,2.5281081199646,2.52800917625427,2.52790880203247,2.5278115272522,2.52771258354187,2.52761197090149,2.52751445770264,2.52741408348083,2.52731657028198,2.52721762657166,2.52711868286133,2.52701807022095,2.52692055702209,2.52682161331177,2.52672266960144,2.52662515640259,2.52652621269226,2.52642726898193,2.52632975578308,2.5262291431427,2.52612996101379,2.52603101730347,2.52593350410461,2.52583289146423,2.52573370933533,2.52563619613647,2.52553725242615,2.52543807029724,2.52534055709839,2.52523970603943,2.52514219284058,2.52504324913025,2.52494406700134,2.52484488487244,2.52474737167358,2.52464818954468,2.52455067634583,2.52445149421692,2.52435398101807,2.52425456047058,2.52415537834167,2.52405619621277,2.52395701408386,2.52385950088501,2.52376008033752,2.52366256713867,2.52356338500977,2.52346563339233,2.52336645126343,2.52326726913452,2.52316951751709,2.52307033538818,2.5229709148407,2.52287316322327,2.52277398109436,2.52267456054688,2.52257871627808,2.52247929573059,2.52237987518311,2.52228379249573,2.52218294143677,2.52208518981934,2.52198576927185,2.52188968658447,2.52178859710693,2.52169251441956,2.52159142494202,2.52149534225464,2.52139759063721,2.52129817008972,2.52119874954224,2.52110266685486,2.52100324630737,2.52090358734131,2.52080416679382,2.52070808410645,2.52060866355896,2.52051067352295,2.52041292190552,2.52031493186951,2.52021551132202,2.52011775970459,2.52001810073853,2.51992034912109,2.51982235908508,2.51972436904907,2.51962494850159,2.51952862739563,2.51942896842957,2.51933121681213,2.51923322677612,2.51913356781006,2.51903557777405,2.51893782615662,2.51883983612061,2.51874184608459,2.51864385604858,2.51854586601257,2.51844620704651,2.51834988594055,2.51825022697449,2.51815223693848,2.51805424690247,2.51795768737793,2.51785635948181,2.51776003837585,2.51766204833984,2.51756381988525,2.51746416091919,2.51736783981323,2.51726961135864,2.51717162132263,2.51707339286804,2.51697540283203,2.51687574386597,2.51677918434143,2.51668095588684,2.51658296585083,2.51648473739624,2.51638650894165,2.51628851890564,2.5161919593811,2.51609206199646,2.51599550247192,2.51589584350586,2.51579928398132,2.51569938659668,2.5156044960022,2.51550459861755,2.51540637016296,2.51530814170837,2.51521158218384,2.51511168479919,2.51501512527466,2.51491689682007,2.5148184299469,2.51472020149231,2.51462364196777,2.51452541351318,2.51442694664001,2.51433038711548,2.51423215866089,2.51413369178772,2.51403713226318,2.51393699645996,2.51384043693542,2.51374197006226,2.51364374160767,2.51354694366455,2.51345014572144,2.51335024833679,2.51325345039368,2.51315665245056,2.51305842399597,2.5129599571228,2.51286149024963,2.51276302337646,2.51266622543335,2.51256799697876,2.51247119903564,2.51237440109253,2.51227593421936,2.51217746734619,2.5120804309845,2.51198196411133,2.51188516616821,2.51178669929504,2.51168990135193,2.51159310340881,2.51149439811707,2.5113959312439,2.51129913330078,2.51120066642761,2.51110363006592,2.51100516319275,2.51090812683105,2.51080965995789,2.51071429252625,2.51061582565308,2.51051878929138,2.51042032241821,2.51032328605652,2.51022458076477,2.51012778282166,2.51003074645996,2.50993371009827,2.50983333587646,2.50973796844482,2.50963950157166,2.50954246520996,2.50944542884827,2.50934839248657,2.50924968719482,2.50915265083313,2.50905561447144,2.50895857810974,2.50885987281799,2.50876259803772,2.50866556167603,2.50856852531433,2.50847148895264,2.50837445259094,2.50827717781067,2.50817847251892,2.50808143615723,2.50798416137695,2.50788712501526,2.50778985023499,2.50769281387329,2.50759553909302,2.50749683380127,2.507399559021,2.5073025226593,2.50720357894897,2.5071063041687,2.50701093673706,2.50691199302673,2.50681304931641,2.50671911239624,2.50662040710449
2.51451754570007,2.5144214630127,2.51432204246521,2.51422452926636,2.51412510871887,2.51402902603149,2.51392960548401,2.51383185386658,2.51373410224915,2.51363635063171,2.51353859901428,2.5134425163269,2.51334309577942,2.51324534416199,2.51314759254456,2.51304984092712,2.51295208930969,2.51285576820374,2.5127580165863,2.51265859603882,2.51256251335144,2.51246452331543,2.51236510276794,2.51226902008057,2.5121693611145,2.51207327842712,2.51197528839111,2.51187753677368,2.51177954673767,2.51168322563171,2.51158547401428,2.51148748397827,2.51138973236084,2.51129174232483,2.51119375228882,2.51109576225281,2.51099944114685,2.51090168952942,2.51080369949341,2.51070737838745,2.51060771942139,2.51050972938538,2.51041340827942,2.51031708717346,2.5102174282074,2.51012110710144,2.51002311706543,2.50992488861084,2.50982856750488,2.50973057746887,2.50963258743286,2.50953602790833,2.50943803787231,2.5093400478363,2.50924348831177,2.50914716720581,2.50904750823975,2.50895094871521,2.5088529586792,2.50875473022461,2.5086567401886,2.50856184959412,2.50846362113953,2.50836563110352,2.50826907157898,2.50817251205444,2.5080726146698,2.50797772407532,2.50787806510925,2.50778150558472,2.50768494606018,2.50758671760559,2.50749015808105,2.50739359855652,2.50729537010193,2.50719714164734,2.5071005821228,2.50700402259827,2.50690412521362,2.50680899620056,2.50671076774597,2.50661420822144,2.50651597976685,2.50642085075378,2.50632095336914,2.5062243938446,2.50612616539001,2.50603103637695,2.50593280792236,2.50583600997925,2.50573778152466,2.50564098358154,2.50554418563843,2.50544762611389,2.50534915924072,2.50525236129761,2.50515580177307,2.5050573348999,2.50496053695679,2.50486373901367,2.50476717948914,2.50467038154602,2.50457191467285,2.50447344779968,2.50437831878662,2.50428152084351,2.50418472290039,2.50408625602722,2.50398945808411,2.50389266014099,2.5037956237793,2.50369882583618,2.50360202789307,2.5035035610199,2.50340819358826,2.50330972671509,2.50321292877197,2.50311613082886,2.50301909446716,2.50292062759399,2.50282692909241,2.50272679328918,2.50263142585754,2.50253462791443,2.50243759155273,2.50234055519104,2.50224542617798,2.50214672088623,2.50204825401306,2.50195121765137,2.50185585021973,2.50175881385803,2.50166344642639,2.50156474113464,2.50146770477295,2.50137090682983,2.50127387046814,2.50117826461792,2.50108122825623,2.50098252296448,2.50088715553284,2.50079011917114,2.50069308280945,2.50059604644775,2.50049901008606,2.50040340423584,2.50030636787415,2.50020933151245,2.50011205673218,2.50001502037048,2.49991798400879,2.49982237815857,2.49972534179688,2.4996280670166,2.49953269958496,2.49943375587463,2.49933838844299,2.49924278259277,2.4991455078125,2.49904847145081,2.49895286560059,2.49885559082031,2.49875831604004,2.49866271018982,2.49856567382812,2.49846839904785,2.49837112426758,2.4982738494873,2.49817824363708,2.49808096885681,2.49798536300659,2.49788808822632,2.4977924823761,2.49769520759583,2.49759793281555,2.49750208854675,2.49740815162659,2.49730920791626,2.49721336364746,2.49711608886719,2.49702048301697,2.49692153930664,2.4968273639679,2.49673008918762,2.49663257598877,2.49653697013855,2.49644112586975,2.49634385108948,2.49624967575073,2.49615216255188,2.49605488777161,2.49595737457275,2.49586153030396,2.49576425552368,2.49566841125488,2.49557256698608,2.49547505378723,2.49537920951843,2.49528503417969,2.49518585205078,2.49509000778198,2.49499416351318,2.49489831924438,2.49480080604553,2.49470496177673,2.49460911750793,2.49451327323914,2.49441742897034,2.49431967735291,2.49422383308411,2.49412798881531,2.49403214454651,2.49393439292908,2.49383854866028,2.4937424659729,2.49364495277405,2.4935507774353,2.49345302581787,2.49335718154907,2.49326109886169,2.49316501617432,2.49306750297546,2.49297142028809,2.49287533760071,2.49278116226196,2.49268341064453,2.49258899688721,2.49249124526978,2.49239540100098,2.4922993183136,2.49220323562622,2.49210548400879,2.49200940132141,2.49191331863403,2.49181723594666,2.49172115325928,2.49162673950195,2.49152898788452,2.49143290519714,2.49133658409119,2.49124050140381,2.49114608764648,2.49104833602905,2.4909520149231,2.49085760116577,2.49075984954834,2.49066519737244,2.49056911468506
2.49836564064026,2.49826741218567,2.49817061424255,2.49807405471802,2.49797892570496,2.49788069725037,2.4977855682373,2.49768900871277,2.49759221076965,2.49749565124512,2.497398853302,2.49730205535889,2.49720549583435,2.49710869789124,2.49701189994812,2.496915102005,2.49681997299194,2.49672174453735,2.49662661552429,2.49652981758118,2.49643468856812,2.49633622169495,2.49624109268188,2.49614429473877,2.49604749679565,2.49595046043396,2.4958553314209,2.49575686454773,2.49566340446472,2.49556493759155,2.49546957015991,2.4953727722168,2.49527597427368,2.49517893791199,2.49508380889893,2.49498677253723,2.49488997459412,2.49479460716248,2.49469780921936,2.49460101127625,2.49450731277466,2.49440860748291,2.49431324005127,2.4942147731781,2.49412107467651,2.49402236938477,2.4939272403717,2.49383187294006,2.49373483657837,2.49363780021667,2.49354243278503,2.49344539642334,2.4933500289917,2.49325299263,2.49315762519836,2.49306058883667,2.49296522140503,2.49286818504333,2.49277114868164,2.49267578125,2.49258017539978,2.49248313903809,2.4923894405365,2.49229216575623,2.49219512939453,2.49209976196289,2.49200248718262,2.49190711975098,2.49181151390076,2.49171447753906,2.49161744117737,2.49152183532715,2.49142622947693,2.49133086204529,2.49123358726501,2.49113798141479,2.49104261398315,2.49094533920288,2.49084973335266,2.49075412750244,2.49065709114075,2.49056148529053,2.49046587944031,2.49036860466003,2.49027299880981,2.49017739295959,2.49008178710938,2.48998618125916,2.48989057540894,2.48979306221008,2.48969912528992,2.48960185050964,2.48950624465942,2.4894106388092,2.48931479454041,2.48921751976013,2.48912191390991,2.48902463912964,2.48893046379089,2.48883318901062,2.48873901367188,2.4886417388916,2.48854756355286,2.48845028877258,2.48835444450378,2.48825860023499,2.48816299438477,2.48806715011597,2.48797130584717,2.48787546157837,2.4877815246582,2.4876823425293,2.48758983612061,2.48749232292175,2.48739647865295,2.48730063438416,2.48720645904541,2.48710894584656,2.48701310157776,2.48691725730896,2.48681974411011,2.48672556877136,2.48662972450256,2.48653388023376,2.48643803596497,2.48634362220764,2.48624610900879,2.48615026473999,2.48605585098267,2.48596167564392,2.48586416244507,2.48576974868774,2.48567390441895,2.48557782173157,2.48548197746277,2.48538589477539,2.48529005050659,2.48519563674927,2.48509955406189,2.48500370979309,2.48490929603577,2.48481321334839,2.48471713066101,2.48462128639221,2.48452520370483,2.48443078994751,2.48433470726013,2.48424029350281,2.48414254188538,2.48404812812805,2.48395204544067,2.4838559627533,2.48375988006592,2.48366713523865,2.48356938362122,2.48347496986389,2.48337888717651,2.48328423500061,2.48318815231323,2.48309373855591,2.48299741744995,2.48290133476257,2.48280692100525,2.48271226882935,2.48261451721191,2.48251986503601,2.48242545127869,2.48232913017273,2.48223471641541,2.4821400642395,2.48204231262207,2.48194932937622,2.48185133934021,2.48175835609436,2.48166227340698,2.48156762123108,2.48147130012512,2.48137497901917,2.48128032684326,2.48118567466736,2.4810893535614,2.4809947013855,2.48089861869812,2.48080372810364,2.48070907592773,2.48061275482178,2.48051643371582,2.48042345046997,2.48032712936401,2.48023247718811,2.48013591766357,2.48004126548767,2.47994661331177,2.47985339164734,2.47975707054138,2.47966074943542,2.47956585884094,2.47947287559509,2.4793746471405,2.47928166389465,2.47918510437012,2.47909021377563,2.47899556159973,2.47890067100525,2.47880434989929,2.47870945930481,2.47861456871033,2.47851967811584,2.47842335700989,2.47833013534546,2.47823357582092,2.47813868522644,2.47804379463196,2.47794890403748,2.47785401344299,2.47775912284851,2.47766256332397,2.47756767272949,2.47747278213501,2.47737956047058,2.47728300094604,2.47718954086304,2.4770929813385,2.47699809074402,2.47690320014954,2.47680807113647,2.47671318054199,2.47661828994751,2.47652316093445,2.47642827033997,2.4763331413269,2.47623825073242,2.47614312171936,2.47604823112488,2.47595477104187,2.47585964202881,2.47576475143433,2.47566962242126,2.4755744934082,2.47547936439514,2.47538447380066,2.4752893447876,2.47519421577454,2.47510075569153,2.47500395774841,2.47491049766541,2.47481536865234,2.47472023963928
2.48241782188416,2.48232221603394,2.48222661018372,2.48213243484497,2.4820351600647,2.48194122314453,2.48184394836426,2.48175001144409,2.48165440559387,2.48156023025513,2.48146462440491,2.48136901855469,2.48127317428589,2.48117923736572,2.48108196258545,2.4809877872467,2.48089218139648,2.48079800605774,2.48070240020752,2.48060655593872,2.4805109500885,2.4804151058197,2.4803192615509,2.48022532463074,2.48012948036194,2.48003363609314,2.47993946075439,2.47984528541565,2.47974967956543,2.47965383529663,2.47955799102783,2.47946548461914,2.47936797142029,2.47927379608154,2.47917795181274,2.479083776474,2.4789879322052,2.47889375686646,2.4787962436676,2.47870349884033,2.47860598564148,2.47851181030273,2.47841763496399,2.47832155227661,2.47822737693787,2.47813153266907,2.47803544998169,2.47794127464294,2.47784686088562,2.47775101661682,2.47765517234802,2.4775607585907,2.47746634483337,2.47737216949463,2.47727608680725,2.47718167304993,2.47708582878113,2.4769914150238,2.47689533233643,2.4768009185791,2.47670674324036,2.47661232948303,2.47651624679565,2.47642183303833,2.47632575035095,2.47623300552368,2.47613525390625,2.47604250907898,2.4759464263916,2.47585201263428,2.47575759887695,2.47566294670105,2.47556686401367,2.47547245025635,2.47537803649902,2.47528195381165,2.47518730163574,2.47509455680847,2.47499680519104,2.47490215301514,2.47480773925781,2.47471475601196,2.47461700439453,2.47452402114868,2.4744279384613,2.47433495521545,2.4742386341095,2.47414588928223,2.47404956817627,2.47395658493042,2.47386026382446,2.47376585006714,2.47367119789124,2.47357654571533,2.47348189353943,2.47338724136353,2.47329092025757,2.47319626808167,2.47310328483582,2.47300863265991,2.47291398048401,2.47281932830811,2.47272300720215,2.4726300239563,2.47253370285034,2.47244048118591,2.47234416007996,2.47225117683411,2.4721565246582,2.47206163406372,2.47196698188782,2.47187376022339,2.47177743911743,2.47168278694153,2.47158789634705,2.4714949131012,2.47140002250671,2.47130680084229,2.47121047973633,2.47111558914185,2.47102236747742,2.47092604637146,2.47083282470703,2.4707396030426,2.47064328193665,2.47055006027222,2.47045516967773,2.47036027908325,2.47026538848877,2.47017216682434,2.4700756072998,2.46998238563538,2.46988749504089,2.46979427337646,2.46969938278198,2.4696044921875,2.46950960159302,2.46941614151001,2.46931958198547,2.4692280292511,2.46913313865662,2.46903800964355,2.46894478797913,2.46884989738464,2.46875309944153,2.4686598777771,2.46856641769409,2.46847152709961,2.46837639808655,2.46828150749207,2.46818804740906,2.46809482574463,2.46799969673157,2.46790456771851,2.46781134605408,2.46771621704102,2.46762275695801,2.46752762794495,2.46743416786194,2.46734070777893,2.46724581718445,2.46715068817139,2.46705722808838,2.46696376800537,2.46687030792236,2.46677350997925,2.46668004989624,2.46658635139465,2.46649122238159,2.46639776229858,2.46630430221558,2.46620917320251,2.46611404418945,2.46602034568787,2.46592855453491,2.4658317565918,2.46573972702026,2.4656445980072,2.46554923057556,2.46545577049255,2.46536207199097,2.46526861190796,2.46517491340637,2.46508121490479,2.46498608589172,2.46489071846008,2.46479725837708,2.46470355987549,2.4646098613739,2.46451616287231,2.46442246437073,2.46432733535767,2.46423530578613,2.46413993835449,2.46404457092285,2.46395254135132,2.46385884284973,2.46376347541809,2.4636697769165,2.46357607841492,2.46348237991333,2.46338868141174,2.46329474449158,2.46319937705994,2.4631073474884,2.46301198005676,2.46291828155518,2.46282434463501,2.46273064613342,2.46263527870178,2.46254301071167,2.46244931221008,2.46235537528992,2.46226000785828,2.46216773986816,2.462073802948,2.46198010444641,2.46188616752625,2.4617908000946,2.46169853210449,2.46160459518433,2.46150922775269,2.46141529083252,2.46132302284241,2.46122908592224,2.46113514900208,2.46104288101196,2.46094727516174,2.46085333824158,2.46076107025146,2.4606671333313,2.46057152748108,2.46048092842102,2.4603853225708,2.46029138565063,2.46019744873047,2.4601035118103,2.46000933647156,2.45991706848145,2.45982313156128,2.45973062515259,2.45963501930237,2.45954275131226,2.45944857597351,2.45935463905334,2.4592604637146,2.45916819572449,2.45907402038574
2.4666736125946,2.46657752990723,2.46648621559143,2.46639013290405,2.4662971496582,2.46620082855225,2.4661078453064,2.46601343154907,2.46592044830322,2.46582579612732,2.46573114395142,2.46563649177551,2.46554350852966,2.46545052528381,2.46535420417786,2.46525955200195,2.46516823768616,2.4650719165802,2.46497893333435,2.4648859500885,2.4647912979126,2.46469640731812,2.46460342407227,2.46450877189636,2.46441411972046,2.46432089805603,2.46422624588013,2.46413159370422,2.46404004096985,2.46394538879395,2.46385049819946,2.46375727653503,2.46366429328918,2.46356797218323,2.4634747505188,2.46337985992432,2.46328687667847,2.46319198608398,2.46309876441956,2.46300387382507,2.4629123210907,2.46281599998474,2.46272444725037,2.46262955665588,2.46253633499146,2.46244144439697,2.46234822273254,2.46225500106812,2.46216011047363,2.46206521987915,2.46197366714478,2.46187877655029,2.46178555488586,2.4616904258728,2.46159720420837,2.46150231361389,2.46141076087952,2.46131563186646,2.46122241020203,2.46112751960754,2.46103405952454,2.46094083786011,2.4608473777771,2.46075248718262,2.46065902709961,2.46056580543518,2.46047234535217,2.46037888526917,2.46028399467468,2.46019053459167,2.46009707450867,2.46000218391418,2.45991039276123,2.45981693267822,2.45972180366516,2.45962834358215,2.45953512191772,2.45943999290466,2.45934820175171,2.4592547416687,2.45915961265564,2.45906615257263,2.45897436141968,2.45887923240662,2.45878720283508,2.45869207382202,2.45860028266907,2.45850515365601,2.45841312408447,2.45831799507141,2.4582245349884,2.4581310749054,2.45803737640381,2.45794224739075,2.45785021781921,2.45775675773621,2.45766305923462,2.45756959915161,2.45747590065002,2.45738244056702,2.45729041099548,2.4571967124939,2.45710325241089,2.4570095539093,2.45691585540771,2.45682215690613,2.45672869682312,2.45663499832153,2.45654129981995,2.45644760131836,2.45635390281677,2.45626020431519,2.45616817474365,2.45607447624207,2.45598077774048,2.45588707923889,2.45579504966736,2.45569968223572,2.45560765266418,2.4555139541626,2.45542168617249,2.45532631874084,2.45523595809937,2.45514035224915,2.45504832267761,2.45495462417603,2.45486068725586,2.45476698875427,2.45467472076416,2.45458102226257,2.45448708534241,2.45439505577087,2.45430278778076,2.45420742034912,2.45411682128906,2.45402121543884,2.45392751693726,2.45383524894714,2.45374131202698,2.45364737510681,2.45355534553528,2.45346140861511,2.453369140625,2.45327520370483,2.45318293571472,2.45308899879456,2.45299673080444,2.45290279388428,2.45281052589417,2.452716588974,2.45262408256531,2.45253014564514,2.45243787765503,2.45234560966492,2.4522533416748,2.45215749740601,2.45206689834595,2.45197296142578,2.45187878608704,2.45178651809692,2.45169258117676,2.45159840583801,2.45150780677795,2.45141363143921,2.45132112503052,2.45122718811035,2.45113468170166,2.45104074478149,2.4509482383728,2.45085573196411,2.45076179504395,2.45066928863525,2.45057678222656,2.45048427581787,2.45039010047913,2.45029759407043,2.45020365715027,2.45011258125305,2.45001864433289,2.44992613792419,2.44983196258545,2.44973945617676,2.44964671134949,2.4495542049408,2.4494616985321,2.44936919212341,2.44927501678467,2.44918394088745,2.44908976554871,2.44899725914001,2.44890475273132,2.44881200790405,2.44871783256531,2.44862675666809,2.44853258132935,2.44843983650208,2.44834733009338,2.44825458526611,2.44816040992737,2.4480676651001,2.44797515869141,2.44788241386414,2.44778966903687,2.44769859313965,2.4476044178009,2.44751167297363,2.44742059707642,2.44732618331909,2.44723343849182,2.44714093208313,2.44704818725586,2.44695544242859,2.44686269760132,2.44676995277405,2.44667720794678,2.44658446311951,2.44649147987366,2.44639873504639,2.44630765914917,2.4462149143219,2.44612050056458,2.44602918624878,2.44593644142151,2.44584369659424,2.44575071334839,2.44565963745117,2.44556522369385,2.445472240448,2.44537949562073,2.44528818130493,2.44519543647766,2.44510412216187,2.44500970840454,2.44491839408875,2.4448254108429,2.44473266601562,2.44463968276978,2.44454836845398,2.44445538520813,2.44436264038086,2.44427132606506,2.44417834281921,2.44408535957336,2.44399237632751,2.44389939308167,2.44380807876587,2.44371509552002,2.44362378120422
2.45112705230713,2.45103359222412,2.45094180107117,2.45084810256958,2.45075631141663,2.45066285133362,2.45056939125061,2.45047736167908,2.45038390159607,2.45029020309448,2.45019674301147,2.45010495185852,2.45001292228699,2.4499192237854,2.44982743263245,2.44973373413086,2.44964027404785,2.44954657554626,2.44945454597473,2.44936108589172,2.44926738739014,2.4491753578186,2.44908165931702,2.44898819923401,2.44889783859253,2.44880414009094,2.44871044158936,2.44862008094788,2.44852471351624,2.4484326839447,2.44833898544312,2.44824862480164,2.44815325737,2.44806122779846,2.44796895980835,2.44787526130676,2.44778323173523,2.4476912021637,2.44759583473206,2.447505235672,2.44741153717041,2.4473192691803,2.44722557067871,2.44713497161865,2.44704127311707,2.44694757461548,2.44685530662537,2.44676303863525,2.44667100906372,2.44657707214355,2.44648504257202,2.44639277458191,2.4463005065918,2.44620823860168,2.4461145401001,2.44602394104004,2.44593000411987,2.44583773612976,2.44574379920959,2.44565153121948,2.4455578327179,2.44546723365784,2.44537329673767,2.44528102874756,2.44518852233887,2.44509625434875,2.44500231742859,2.44491171836853,2.44481778144836,2.44472551345825,2.44463300704956,2.44454073905945,2.44444847106934,2.44435596466064,2.44426369667053,2.44417142868042,2.44407725334167,2.44398665428162,2.44389247894287,2.44380021095276,2.44370770454407,2.44361710548401,2.44352293014526,2.44343042373657,2.44333815574646,2.44324564933777,2.44315314292908,2.44306254386902,2.44296836853027,2.44287753105164,2.44278335571289,2.44269251823425,2.44260001182556,2.44250750541687,2.4424135684967,2.44232249259949,2.44222855567932,2.4421374797821,2.44204497337341,2.44195413589478,2.44185996055603,2.44176745414734,2.4416766166687,2.44158387184143,2.44149136543274,2.44139885902405,2.44130635261536,2.44121360778809,2.44112277030945,2.44103002548218,2.44093751907349,2.44084644317627,2.44075226783752,2.44065952301025,2.44056868553162,2.4404776096344,2.44038343429565,2.44029235839844,2.44019961357117,2.44010710716248,2.44001603126526,2.43992328643799,2.43983054161072,2.4397394657135,2.43964672088623,2.43955588340759,2.43946146965027,2.43937206268311,2.43927764892578,2.43918657302856,2.43909382820129,2.43900108337402,2.43891000747681,2.43881869316101,2.43872427940369,2.43863320350647,2.43854212760925,2.43844938278198,2.43835806846619,2.43826699256897,2.43817257881165,2.43808126449585,2.43799018859863,2.43789720535278,2.43780612945557,2.43771314620972,2.4376220703125,2.4375307559967,2.43743968009949,2.43734669685364,2.43725371360779,2.43716263771057,2.43707132339478,2.43697834014893,2.43688559532166,2.43679428100586,2.43670129776001,2.43660998344421,2.43651866912842,2.43642735481262,2.43633437156677,2.43624305725098,2.43615031242371,2.43605875968933,2.43596577644348,2.43587446212769,2.43578314781189,2.43569183349609,2.43559885025024,2.43550753593445,2.43541598320007,2.43532466888428,2.43523168563843,2.43514180183411,2.43504881858826,2.43495750427246,2.43486428260803,2.43477463722229,2.43468141555786,2.43459010124207,2.43449854850769,2.43440556526184,2.43431401252747,2.43422436714172,2.43412947654724,2.43403959274292,2.43394827842712,2.43385672569275,2.43376350402832,2.43367195129395,2.43358063697815,2.43348908424377,2.4333975315094,2.43330430984497,2.4332127571106,2.43312287330627,2.43302965164185,2.43293809890747,2.43284821510315,2.43275499343872,2.43266344070435,2.43257188796997,2.43248176574707,2.43238854408264,2.43229699134827,2.43220543861389,2.43211364746094,2.43202042579651,2.43193197250366,2.43183875083923,2.43174886703491,2.4316554069519,2.43156552314758,2.43147206306458,2.43138217926025,2.4312903881073,2.43119883537292,2.43110704421997,2.43101692199707,2.43092370033264,2.43083357810974,2.43074011802673,2.43064999580383,2.43055844306946,2.4304666519165,2.4303731918335,2.43028473854065,2.43019127845764,2.43010115623474,2.43000936508179,2.42991757392883,2.42982745170593,2.42973566055298,2.42964386940002,2.42955207824707,2.42946028709412,2.42936992645264,2.42927813529968,2.42918634414673,2.42909455299377,2.42900586128235,2.42891240119934,2.42882227897644,2.42873024940491,2.42863845825195,2.42854809761047,2.42845630645752,2.42836451530457
2.4357762336731,2.43568539619446,2.43559122085571,2.43550205230713,2.43540978431702,2.43531727790833,2.43522477149963,2.435133934021,2.4350414276123,2.43495059013367,2.43485808372498,2.43476724624634,2.43467473983765,2.43458390235901,2.43449139595032,2.43439888954163,2.43430805206299,2.43421697616577,2.43412446975708,2.43403196334839,2.4339394569397,2.43384861946106,2.43375754356384,2.43366670608521,2.43357396125793,2.43348145484924,2.43338894844055,2.43329787254333,2.43320536613464,2.43311595916748,2.43302345275879,2.43293237686157,2.43284130096436,2.43274879455566,2.43265604972839,2.43256497383118,2.43247413635254,2.43238306045532,2.43229031562805,2.43220090866089,2.43210649490356,2.43201541900635,2.43192434310913,2.43183183670044,2.4317421913147,2.43164801597595,2.43155837059021,2.43146729469299,2.43137454986572,2.43128347396851,2.43119239807129,2.43109965324402,2.4310085773468,2.43091726303101,2.43082618713379,2.43073344230652,2.43064212799072,2.43055105209351,2.43045997619629,2.43036866188049,2.43027591705322,2.43018627166748,2.43009352684021,2.43000388145447,2.42991256713867,2.4298198223114,2.42972850799561,2.42963743209839,2.42954611778259,2.42945313453674,2.429363489151,2.42927074432373,2.42918109893799,2.42908978462219,2.4289984703064,2.42890548706055,2.4288158416748,2.42872285842896,2.42863321304321,2.42854022979736,2.42845058441162,2.42835760116577,2.42826795578003,2.42817497253418,2.42808365821838,2.42799401283264,2.42790079116821,2.42780947685242,2.42771983146667,2.42762851715088,2.42753529548645,2.42744565010071,2.42735409736633,2.42726278305054,2.42717289924622,2.42707991600037,2.42699003219604,2.42689871788025,2.42680716514587,2.42671585083008,2.42662596702576,2.42653274536133,2.42644143104553,2.42635154724121,2.42626166343689,2.42616844177246,2.42607712745667,2.42598724365234,2.42589569091797,2.42580246925354,2.42571425437927,2.42562103271484,2.42553114891052,2.42543959617615,2.42534971237183,2.4252564907074,2.42516827583313,2.4250750541687,2.4249849319458,2.42489504814148,2.4248034954071,2.42471194267273,2.42462182044983,2.42453026771545,2.42443871498108,2.42434859275818,2.4242570400238,2.42416548728943,2.42407703399658,2.42398381233215,2.42389369010925,2.42380356788635,2.42371201515198,2.42362022399902,2.42353010177612,2.42343854904175,2.42334842681885,2.42325520515442,2.42316508293152,2.42307496070862,2.42298483848572,2.42289304733276,2.42280125617981,2.42271113395691,2.42262101173401,2.42252945899963,2.42243909835815,2.42234754562378,2.4222571849823,2.42216539382935,2.4220769405365,2.42198348045349,2.42189335823059,2.42180323600769,2.42171120643616,2.42162108421326,2.42153263092041,2.4214391708374,2.42134881019592,2.42125868797302,2.42116832733154,2.42107653617859,2.42098474502563,2.42089438438416,2.42080402374268,2.42071223258972,2.4206235408783,2.42053174972534,2.42044138908386,2.42034959793091,2.42025923728943,2.42016887664795,2.42008018493652,2.41998815536499,2.41989803314209,2.41980600357056,2.41971731185913,2.4196252822876,2.41953492164612,2.41944456100464,2.41935420036316,2.41926217079163,2.4191734790802,2.41907978057861,2.41899275779724,2.41889905929565,2.41881012916565,2.41871976852417,2.41862940788269,2.41853737831116,2.4184467792511,2.41835641860962,2.41826772689819,2.41817545890808,2.4180850982666,2.41799473762512,2.41790413856506,2.41781377792358,2.41772317886353,2.41763281822205,2.41754388809204,2.41745162010193,2.41736125946045,2.41727066040039,2.41718173027039,2.41708970069885,2.41700077056885,2.41690850257874,2.41681790351868,2.41672897338867,2.41663837432861,2.41654634475708,2.41645741462708,2.41636681556702,2.4162745475769,2.41618394851685,2.41609501838684,2.41600441932678,2.41591382026672,2.41582298278809,2.41573238372803,2.41564178466797,2.41555285453796,2.41546225547791,2.41537141799927,2.41528248786926,2.4151918888092,2.41510105133057,2.41501045227051,2.41492128372192,2.41483068466187,2.41474151611328,2.41465091705322,2.41455841064453,2.41446948051453,2.41437864303589,2.41428804397583,2.41419887542725,2.41410803794861,2.41401743888855,2.41392827033997,2.41383910179138,2.41374659538269,2.41365742683411,2.41356658935547,2.41347599029541,2.41338682174683,2.41329765319824
2.42061758041382,2.42052459716797,2.42043662071228,2.42034363746643,2.42025375366211,2.42016243934631,2.42007279396057,2.41997957229614,2.41989159584045,2.41980004310608,2.41970872879028,2.41961741447449,2.41952919960022,2.41943597793579,2.41934633255005,2.41925644874573,2.41916513442993,2.41907358169556,2.41898369789124,2.41889381408691,2.41880249977112,2.4187126159668,2.41862106323242,2.41852951049805,2.41844129562378,2.4183497428894,2.41825985908508,2.41816854476929,2.41807842254639,2.41798853874207,2.41789698600769,2.41780543327332,2.41771554946899,2.41762566566467,2.41753578186035,2.41744422912598,2.41735410690308,2.41726422309875,2.41717267036438,2.41708111763,2.41699266433716,2.41690278053284,2.41681265830994,2.41672110557556,2.41663098335266,2.41654109954834,2.41645097732544,2.41635942459106,2.41626763343811,2.41617941856384,2.41608762741089,2.41599750518799,2.41590762138367,2.41581749916077,2.41572737693787,2.41563725471497,2.41554570198059,2.41545557975769,2.41536545753479,2.41527533531189,2.41518521308899,2.41509509086609,2.41500663757324,2.41491317749023,2.41482305526733,2.41473293304443,2.41464447975159,2.41455268859863,2.41446232795715,2.41437220573425,2.41428208351135,2.41419196128845,2.41410160064697,2.41401147842407,2.41392135620117,2.41383099555969,2.41373920440674,2.41365218162537,2.41356039047241,2.41347026824951,2.41337990760803,2.41329121589661,2.41319942474365,2.41311073303223,2.41302061080933,2.41292858123779,2.41283988952637,2.41274976730347,2.41265940666199,2.41256904602051,2.41247868537903,2.41238832473755,2.41229820251465,2.41220784187317,2.41211748123169,2.41202878952026,2.41193842887878,2.4118480682373,2.41175770759583,2.41166877746582,2.41157841682434,2.41148805618286,2.41139769554138,2.4113073348999,2.41121697425842,2.41112804412842,2.41103768348694,2.41094732284546,2.41085696220398,2.41076803207397,2.41067600250244,2.41058874130249,2.41049838066101,2.41040778160095,2.41031742095947,2.41022849082947,2.41013813018799,2.41004753112793,2.40995717048645,2.4098699092865,2.40977764129639,2.40968871116638,2.4095983505249,2.40950775146484,2.40941882133484,2.40932822227478,2.40923929214478,2.40915036201477,2.40905833244324,2.40896940231323,2.40888047218323,2.40878987312317,2.40869927406311,2.40861177444458,2.40852117538452,2.40843057632446,2.40834164619446,2.4082510471344,2.40816044807434,2.40807294845581,2.40798234939575,2.40789341926575,2.40780258178711,2.4077136516571,2.40762305259705,2.40753221511841,2.4074432849884,2.40735411643982,2.40726184844971,2.40717601776123,2.40708374977112,2.40699458122253,2.40690398216248,2.40681648254395,2.40672564506531,2.4066367149353,2.40654587745667,2.40645670890808,2.4063675403595,2.40627670288086,2.40618777275085,2.40609860420227,2.40600776672363,2.40591859817505,2.40582942962646,2.40574026107788,2.40564942359924,2.40556192398071,2.40547108650208,2.40538024902344,2.40529084205627,2.40520167350769,2.40511250495911,2.40502333641052,2.40493416786194,2.40484476089478,2.40475392341614,2.40466618537903,2.40457534790039,2.40448617935181,2.40439677238464,2.40430760383606,2.40421652793884,2.40412902832031,2.4040379524231,2.40394878387451,2.40385937690735,2.40377020835876,2.4036808013916,2.40359306335449,2.4035005569458,2.40341114997864,2.40332341194153,2.40323400497437,2.40314292907715,2.40305519104004,2.40296578407288,2.40287494659424,2.40278553962708,2.40269780158997,2.40260672569275,2.40251898765564,2.4024293422699,2.40233993530273,2.40224885940552,2.40216112136841,2.40207171440125,2.40198230743408,2.40189290046692,2.40180325508118,2.40171384811401,2.4016261100769,2.40153479576111,2.401447057724,2.40135741233826,2.40126800537109,2.40117859840393,2.40109062194824,2.4010009765625,2.40091156959534,2.40082192420959,2.40073251724243,2.40064287185669,2.40055322647095,2.40046548843384,2.4003758430481,2.40028619766235,2.40019822120667,2.40010714530945,2.40001916885376,2.39992952346802,2.39984154701233,2.39975023269653,2.3996639251709,2.3995726108551,2.39948463439941,2.39939498901367,2.39930534362793,2.39921569824219,2.3991277217865,2.39903950691223,2.39894676208496,2.39886021614075,2.398770570755,2.39868259429932,2.398592710495,2.39850473403931,2.39841508865356
2.40564179420471,2.40555477142334,2.40546441078186,2.40537405014038,2.40528392791748,2.40519523620605,2.40510487556458,2.4050178527832,2.40492749214172,2.40483713150024,2.40474843978882,2.40465807914734,2.40456938743591,2.40447902679443,2.40439033508301,2.40429997444153,2.4042112827301,2.40412092208862,2.40403056144714,2.40394186973572,2.40385293960571,2.40376424789429,2.40367221832275,2.4035849571228,2.40349459648132,2.40340423583984,2.40331697463989,2.40322661399841,2.40313768386841,2.40304899215698,2.4029586315155,2.40286803245544,2.40277910232544,2.40269041061401,2.40259981155396,2.402512550354,2.40242218971252,2.40233325958252,2.40224432945251,2.40215539932251,2.40206503868103,2.40197610855103,2.40188550949097,2.40179657936096,2.40170764923096,2.40161871910095,2.40152812004089,2.40143918991089,2.40135025978088,2.40126132965088,2.40117073059082,2.40108346939087,2.40099287033081,2.40090394020081,2.40081477165222,2.40072584152222,2.40063524246216,2.40054798126221,2.40045881271362,2.40036821365356,2.40028071403503,2.40019178390503,2.40009951591492,2.40001368522644,2.39992308616638,2.3998339176178,2.39974498748779,2.39965581893921,2.39956498146057,2.39947772026062,2.39938855171204,2.39929938316345,2.39920878410339,2.39912128448486,2.39903044700623,2.3989429473877,2.39885377883911,2.39876461029053,2.39867568016052,2.39858651161194,2.39849734306335,2.39840817451477,2.39831900596619,2.3982298374176,2.39813899993896,2.39805126190186,2.39796376228333,2.39787459373474,2.39778542518616,2.39769625663757,2.39760541915894,2.39751768112183,2.39742851257324,2.39733910560608,2.3972499370575,2.39716243743896,2.3970730304718,2.39698219299316,2.39689445495605,2.39680528640747,2.39671754837036,2.39662671089172,2.39653897285461,2.39644813537598,2.39636206626892,2.3962709903717,2.39618325233459,2.39609408378601,2.39600467681885,2.39591526985168,2.39582920074463,2.39573812484741,2.39564895629883,2.39556121826172,2.39547181129456,2.39538240432739,2.39529466629028,2.39520525932312,2.39511752128601,2.39502787590027,2.39494013786316,2.39484906196594,2.39476299285889,2.39467191696167,2.39458417892456,2.39449453353882,2.39440679550171,2.39431738853455,2.39422941207886,2.39414000511169,2.39405059814453,2.39396262168884,2.39387488365173,2.39378523826599,2.39369583129883,2.39360785484314,2.39351987838745,2.39343047142029,2.3933424949646,2.39325308799744,2.39316511154175,2.39307546615601,2.39298748970032,2.39289808273315,2.39281177520752,2.39272046089172,2.39263248443604,2.39254450798035,2.3924548625946,2.39236545562744,2.39227890968323,2.39218926429749,2.3921012878418,2.39201164245605,2.39192366600037,2.39183402061462,2.39174604415894,2.39165806770325,2.39156985282898,2.39148020744324,2.39139223098755,2.39130258560181,2.39121603965759,2.39112639427185,2.39103841781616,2.39094853401184,2.39086222648621,2.39077234268188,2.3906843662262,2.39059615135193,2.39050817489624,2.39041829109192,2.39033174514771,2.39024043083191,2.3901538848877,2.39006590843201,2.38997769355774,2.38988780975342,2.38979959487915,2.38971161842346,2.38962173461914,2.38953351974487,2.38944697380066,2.38935708999634,2.38926887512207,2.3891806602478,2.38909244537354,2.38900423049927,2.388916015625,2.38882780075073,2.38873958587646,2.3886513710022,2.38856291770935,2.38847303390503,2.38838648796082,2.38829660415649,2.3882098197937,2.38811993598938,2.38803339004517,2.38794493675232,2.38785672187805,2.38776683807373,2.38768005371094,2.38759160041809,2.38750338554382,2.3874135017395,2.38732838630676,2.38723826408386,2.38715004920959,2.38706159591675,2.3869731426239,2.38688492774963,2.38679647445679,2.38670802116394,2.38662123680115,2.38653111457825,2.38644433021545,2.38635611534119,2.38626766204834,2.38617920875549,2.3860924243927,2.38600397109985,2.38591551780701,2.38582706451416,2.38573861122131,2.38565158843994,2.38556313514709,2.38547468185425,2.38538789749146,2.38529777526855,2.38521075248718,2.38512229919434,2.38503551483154,2.38494682312012,2.38485836982727,2.38477158546448,2.38468289375305,2.38459277153015,2.38450574874878,2.38441896438599,2.38433027267456,2.38424324989319,2.38415479660034,2.38406443595886,2.38397932052612,2.3838906288147,2.38380360603333,2.3837149143219
