8.27929306030273,8.27956390380859,8.27983474731445,8.28010559082031,8.28037643432617,8.28064727783203,8.28091812133789,8.28118896484375,8.28145980834961,8.28173160552979,8.28200244903564,8.2822732925415,8.28254413604736,8.28281497955322,8.28308582305908,8.28335762023926,8.28362846374512,8.3044261932373,8.33351802825928,8.36281490325928,8.39231872558594,8.42203044891357,8.45195388793945,8.48209095001221,8.51244354248047,8.54301452636719,8.573805809021,8.60481929779053,8.63605785369873,8.66752433776855,8.69922161102295,8.73115062713623,8.76331520080566,8.7957181930542,8.82836055755615,8.86124706268311,8.89437866210938,8.92776012420654,8.96139240264893,8.99527835845947,9.02942276000977,9.06382656097412,9.0984935760498,9.13342761993408,9.16863059997559,9.20410537719727,9.23985576629639,9.27588558197021,9.3121976852417,9.34879493713379,9.38568019866943,9.42285823822021,9.46033191680908,9.4981050491333,9.53618144989014,9.57456302642822,9.61325454711914,9.65225982666016,9.69158267974854,9.73122787475586,9.77119922637939,9.81149959564209,9.85213375091553,9.89310550689697,11.5439291000366,11.5443077087402,11.5446863174438,11.5450639724731,11.5454425811768,11.5458211898804,11.546199798584,11.5465784072876,11.5469570159912,11.5473356246948,11.5477142333984,11.5480928421021,11.5484714508057,11.5488500595093,11.5492286682129,11.5496072769165,11.5499858856201,11.550365447998,11.5507440567017,11.5511226654053,11.5515012741089,11.5518808364868,11.5522594451904,11.552638053894,11.553017616272,11.5533962249756,11.5537748336792,11.5541543960571,11.5545330047607,11.5549125671387,11.5552911758423,11.5556707382202,11.5560493469238,11.5564289093018,11.5568075180054,11.6093616485596,11.6664209365845,11.7240447998047,11.7822399139404,11.826473236084,11.8292427062988,11.832013130188,11.8347854614258,11.8375587463379,11.8403329849243,11.8431091308594,11.8458862304688,11.8486642837524,11.8514442443848,11.8542251586914,11.8570079803467,11.8597917556763,11.8625764846802,11.8653631210327,11.8681507110596,11.8709392547607,11.8737297058105,11.8765211105347,11.8793134689331,11.8821077346802,11.8849029541016,11.8877000808716,11.8904981613159,11.8932981491089,11.8960981369019,11.8989000320435,11.9017038345337,11.9045085906982,11.9073143005371,11.9101219177246,11.9129304885864,11.9157409667969,11.9185514450073,11.9213647842407,11.9241790771484,11.9269952774048,11.9298124313354,11.9326305389404,11.935450553894,11.938271522522,11.9410934448242,11.9439172744751,11.9467430114746,11.9495687484741,11.9523973464966,11.955225944519,11.9580564498901,11.9608879089355,11.9637212753296,11.9665555953979,11.9693918228149,11.9722290039062,11.9750671386719,11.9779071807861,11.9807481765747,11.9835910797119,11.9864349365234,11.9892807006836,11.9921264648438,11.9949750900269,11.9978246688843,12.000675201416,12.0035266876221,12.0063800811768,12.0096464157104,12.0162906646729,12.0229434967041,12.0296030044556,12.0362701416016,12.0429449081421,12.0496273040771,12.0563163757324,12.0630130767822,12.0697174072266,12.0764293670654,12.0831480026245,12.0898752212524,12.0966091156006,12.1033506393433,12.1100997924805,12.1168565750122,12.1236209869385,12.130392074585,12.1371717453003,12.1439590454102,12.1507530212402,12.1575555801392,12.1643657684326,12.1711826324463,12.1780080795288,12.1848402023315,12.1916809082031,12.1985292434692,12.2053842544556,12.2122478485107,12.2191190719604,12.2259979248047,12.2328853607178,12.2397794723511,12.2466821670532,12.2535915374756,12.2605094909668,12.2674350738525,12.2743682861328,12.2813100814819,12.2882595062256,12.2952165603638,12.3021812438965,12.3091535568237,12.3186025619507,12.3340673446655,12.3495721817017,12.3651161193848,12.3806982040405,12.3963203430176,12.4119825363159,12.4276828765869,12.4434242248535,12.4592046737671,12.4750261306763,12.4908866882324,12.5067882537842,12.5227308273315,12.5387134552002,12.5547370910645,12.5708017349243,12.5869073867798,12.6030550003052,12.6192436218262,12.6354732513428,12.6517457962036,12.6680593490601,12.6844158172607,12.7008142471313,12.7172546386719,12.9120445251465,12.926607131958,12.941201210022,12.9558296203613,12.9704904556274,12.9851846694946,12.9999113082886,13.0146722793579
8.27940654754639,8.27967739105225,8.27994823455811,8.28021907806396,8.28048992156982,8.28076076507568,8.28103160858154,8.2813024520874,8.28157329559326,8.28184413909912,8.28211498260498,8.28238582611084,8.28265762329102,8.28292846679688,8.28319931030273,8.28347015380859,8.28374195098877,8.30458450317383,8.33367824554443,8.36297607421875,8.39247989654541,8.42219352722168,8.45211887359619,8.48225688934326,8.51261043548584,8.54318237304688,8.573974609375,8.60498905181885,8.63622951507568,8.66769695281982,8.69939517974854,8.73132610321045,8.7634916305542,8.79589557647705,8.82853984832764,8.86142730712891,8.89456081390381,8.92794322967529,8.96157646179199,8.99546432495117,9.02960968017578,9.06401538848877,9.09868431091309,9.13361930847168,9.1688232421875,9.20429992675781,9.24005222320557,9.27608394622803,9.31239700317383,9.34899520874023,9.38588237762451,9.42306232452393,9.46053791046143,9.49831295013428,9.53639030456543,9.57477283477783,9.61346626281738,9.65247344970703,9.69179821014404,9.7314453125,9.77141761779785,9.81171989440918,9.85235595703125,9.89333057403564,11.5440874099731,11.5444650650024,11.5448436737061,11.5452222824097,11.5456008911133,11.5459794998169,11.5463581085205,11.5467367172241,11.5471153259277,11.5474939346313,11.547872543335,11.5482511520386,11.5486297607422,11.5490083694458,11.5493869781494,11.549765586853,11.5501441955566,11.5505228042603,11.5509023666382,11.5512809753418,11.5516595840454,11.552038192749,11.552417755127,11.5527963638306,11.5531749725342,11.5535545349121,11.5539331436157,11.5543127059937,11.5546913146973,11.5550708770752,11.5554494857788,11.5558290481567,11.5562076568604,11.5565872192383,11.5569658279419,11.6096715927124,11.6667346954346,11.7243614196777,11.7825603485107,11.835467338562,11.8382406234741,11.8410158157349,11.8437919616699,11.8465690612793,11.8493480682373,11.8521280288696,11.8549089431763,11.8576917648315,11.8604755401611,11.8632612228394,11.8660478591919,11.8688354492188,11.8716249465942,11.874415397644,11.8772077560425,11.8800001144409,11.8827953338623,11.8855905532837,11.8883876800537,11.8911867141724,11.893985748291,11.8967866897583,11.8995895385742,11.9023933410645,11.905198097229,11.9080047607422,11.9108123779297,11.9136209487915,11.916431427002,11.9192428588867,11.9220561981201,11.9248704910278,11.9276857376099,11.9305028915405,11.9333209991455,11.9361410140991,11.9389629364014,11.9417848587036,11.9446096420288,11.947434425354,11.9502620697021,11.9530897140503,11.9559192657471,11.9587497711182,11.9615821838379,11.9644155502319,11.9672508239746,11.9700860977173,11.9729242324829,11.9757633209229,11.9786033630371,11.9814443588257,11.9842872619629,11.9871320724487,11.9899768829346,11.9928245544434,11.9956722259521,11.9985218048096,12.0013732910156,12.004225730896,12.0070791244507,12.009934425354,12.0127906799316,12.0156488418579,12.0186138153076,12.0252685546875,12.0319309234619,12.0386009216309,12.04527759552,12.051962852478,12.0586547851562,12.065354347229,12.072060585022,12.0787754058838,12.0854969024658,12.0922260284424,12.0989627838135,12.1057071685791,12.1124591827393,12.1192178726196,12.1259851455688,12.1327600479126,12.1395416259766,12.1463308334351,12.1531286239624,12.15993309021,12.1667461395264,12.173565864563,12.1803932189941,12.1872291564941,12.1940717697144,12.2009229660034,12.2077808380127,12.2146472930908,12.2215213775635,12.2284030914307,12.2352924346924,12.2421894073486,12.2490940093994,12.256007194519,12.2629280090332,12.2698564529419,12.2767925262451,12.2837362289429,12.2906885147095,12.2976484298706,12.3046159744263,12.3115911483765,12.3185749053955,12.3255662918091,12.3325653076172,12.3395729064941,12.3465881347656,12.3536109924316,12.3606424331665,12.3676815032959,12.3747291564941,12.3862419128418,12.4018783569336,12.4175539016724,12.4332695007324,12.4490242004395,12.4648189544678,12.4806547164917,12.4965295791626,12.5124454498291,12.5284023284912,12.5443992614746,12.5604381561279,12.5765171051025,12.5926370620728,12.6087989807129,12.6250028610229,12.6412477493286,12.6575345993042,12.6738634109497,12.6902351379395,12.9613523483276,12.9760255813599,12.9907321929932,13.0054721832275,13.020245552063,13.0350532531738
8.27951908111572,8.27978992462158,8.28006076812744,8.2803316116333,8.28060245513916,8.28087329864502,8.28114414215088,8.28141498565674,8.28168678283691,8.28195762634277,8.28222846984863,8.28249931335449,8.28277015686035,8.28304100036621,8.28331279754639,8.28358364105225,8.28385448455811,8.30474281311035,8.33383750915527,8.36313629150391,8.3926420211792,8.42235660552979,8.45228290557861,8.482421875,8.51277732849121,8.54335021972656,8.574143409729,8.60515975952148,8.63640117645264,8.66786956787109,8.69956874847412,8.73150157928467,8.76366806030273,8.7960729598999,8.82871913909912,8.86160755157471,8.89474296569824,8.92812633514404,8.96176147460938,8.99565029144287,9.02979755401611,9.06420421600342,9.09887504577637,9.13381099700928,9.16901683807373,9.20449542999268,9.24024868011475,9.27628135681152,9.31259632110596,9.349196434021,9.38608551025391,9.42326641082764,9.46074390411377,9.49851989746094,9.53659820556641,9.57498264312744,9.61367797851562,9.65268707275391,9.69201374053955,9.73166275024414,9.77163696289062,9.81194114685059,9.85257816314697,9.8935546875,11.5442447662354,11.544623374939,11.5450019836426,11.5453805923462,11.5457582473755,11.5461368560791,11.5465154647827,11.5468940734863,11.5472726821899,11.5476512908936,11.5480298995972,11.5484085083008,11.5487871170044,11.549165725708,11.5495452880859,11.5499238967896,11.5503025054932,11.5506811141968,11.5510597229004,11.5514392852783,11.5518178939819,11.5521965026855,11.5525760650635,11.5529546737671,11.5533332824707,11.5537128448486,11.5540914535522,11.5544710159302,11.5548496246338,11.5552291870117,11.5556077957153,11.5559873580933,11.5563659667969,11.5567455291748,11.5571241378784,11.6099824905396,11.6670484542847,11.7246780395508,11.7828807830811,11.8416633605957,11.8472518920898,11.8500308990479,11.8528118133545,11.8555927276611,11.8583765029907,11.8611602783203,11.8639459609985,11.8667325973511,11.8695211410522,11.8723106384277,11.8751010894775,11.877893447876,11.8806867599487,11.8834819793701,11.8862781524658,11.8890752792358,11.8918743133545,11.8946743011475,11.8974752426147,11.9002780914307,11.9030828475952,11.9058876037598,11.9086942672729,11.9115028381348,11.9143114089966,11.9171228408813,11.9199342727661,11.9227476119995,11.9255619049072,11.9283781051636,11.9311952590942,11.9340143203735,11.9368343353271,11.9396553039551,11.9424781799316,11.9453020095825,11.9481267929077,11.9509544372559,11.953782081604,11.9566125869751,11.9594430923462,11.9622755050659,11.9651098251343,11.967945098877,11.9707813262939,11.9736194610596,11.9764585494995,11.9792985916138,11.9821405410767,11.9849843978882,11.9878282546997,11.9906740188599,11.9935216903687,11.9963703155518,11.9992198944092,12.0020713806152,12.0049247741699,12.0077781677246,12.0106334686279,12.0134906768799,12.0163488388062,12.0192079544067,12.022068977356,12.0249309539795,12.0277948379517,12.0342597961426,12.0409326553345,12.0476121902466,12.0542993545532,12.0609941482544,12.0676956176758,12.0744047164917,12.0811223983765,12.0878467559814,12.094578742981,12.1013174057007,12.1080646514893,12.1148195266724,12.1215810775757,12.1283502578735,12.1351280212402,12.1419124603271,12.1487045288086,12.1555042266846,12.1623115539551,12.1691274642944,12.175950050354,12.1827802658081,12.1896181106567,12.1964635848999,12.2033176422119,12.2101783752441,12.2170476913452,12.2239236831665,12.2308082580566,12.2377004623413,12.2446002960205,12.2515077590942,12.2584238052368,12.2653465270996,12.2722778320312,12.2792167663574,12.2861633300781,12.2931184768677,12.3000812530518,12.3070516586304,12.3140296936035,12.3210163116455,12.3280096054077,12.3350124359131,12.3420219421387,12.3490400314331,12.3560667037964,12.3631000518799,12.3701419830322,12.3771924972534,12.3842506408691,12.3913164138794,12.3983907699585,12.4054737091064,12.4125633239746,12.4196624755859,12.4267692565918,12.4338836669922,12.4410066604614,12.4546298980713,12.4704389572144,12.4862880706787,12.5021781921387,12.5181083679199,12.5340795516968,12.5500907897949,12.566143989563,12.5822372436523,12.5983724594116,12.6145496368408,12.6307678222656,12.647027015686,12.6633291244507,13.0110378265381,13.0258235931396,13.0406436920166,13.0554971694946
8.27963256835938,8.27990341186523,8.28017425537109,8.28044509887695,8.28071594238281,8.28098678588867,8.28125762939453,8.28152847290039,8.28179931640625,8.28207015991211,8.28234100341797,8.28261280059814,8.282883644104,8.28315448760986,8.28342533111572,8.2836971282959,8.28396797180176,8.30490112304688,8.33399677276611,8.36329746246338,8.39280414581299,8.42251968383789,8.45244693756104,8.48258686065674,8.51294326782227,8.54351806640625,8.57431221008301,8.6053295135498,8.63657188415527,8.66804218292236,8.69974327087402,8.73167610168457,8.76384449005127,8.79625129699707,8.82889842987061,8.86178874969482,8.89492416381836,8.92830944061279,8.96194553375244,8.99583625793457,9.02998447418213,9.06439304351807,9.09906482696533,9.13400268554688,9.16920948028564,9.20468997955322,9.24044513702393,9.27647876739502,9.31279563903809,9.34939670562744,9.38628768920898,9.42347049713135,9.4609489440918,9.4987268447876,9.5368070602417,9.57519340515137,9.61388969421387,9.65290069580078,9.69222927093506,9.73187923431396,9.77185535430908,9.81216144561768,9.85280132293701,9.89377880096436,11.5444030761719,11.5447816848755,11.5451593399048,11.5455379486084,11.545916557312,11.5462951660156,11.5466737747192,11.5470523834229,11.5474309921265,11.5478096008301,11.5481882095337,11.5485668182373,11.5489454269409,11.5493240356445,11.5497026443481,11.5500822067261,11.5504608154297,11.5508394241333,11.5512180328369,11.5515966415405,11.5519762039185,11.5523548126221,11.5527334213257,11.5531129837036,11.5534915924072,11.5538711547852,11.5542497634888,11.5546283721924,11.5550079345703,11.5553874969482,11.5557661056519,11.5561456680298,11.5565242767334,11.5569038391113,11.5572824478149,11.6102933883667,11.6673622131348,11.7249956130981,11.7832002639771,11.841986656189,11.8562774658203,11.8590602874756,11.8618450164795,11.8646306991577,11.8674182891846,11.8702068328857,11.8729963302612,11.8757877349854,11.8785800933838,11.8813743591309,11.8841695785522,11.8869657516479,11.889762878418,11.8925619125366,11.8953628540039,11.8981647491455,11.9009675979614,11.9037714004517,11.9065771102905,11.909384727478,11.9121932983398,11.915002822876,11.9178133010864,11.9206256866455,11.9234390258789,11.9262542724609,11.9290704727173,11.9318885803223,11.9347066879272,11.9375276565552,11.9403486251831,11.9431715011597,11.9459962844849,11.9488220214844,11.9516487121582,11.9544773101807,11.9573068618774,11.9601373672485,11.9629697799683,11.9658041000366,11.9686393737793,11.9714765548706,11.9743146896362,11.9771537780762,11.9799947738647,11.9828367233276,11.9856805801392,11.988525390625,11.9913711547852,11.9942188262939,11.9970684051514,11.9999179840088,12.0027704238892,12.0056228637695,12.0084772109985,12.0113334655762,12.0141906738281,12.0170488357544,12.0199089050293,12.0227699279785,12.0256319046021,12.0284957885742,12.031361579895,12.0342283248901,12.0370960235596,12.0432643890381,12.0499467849731,12.0566368103027,12.0633335113525,12.0700387954712,12.0767507553101,12.0834703445435,12.0901966094971,12.0969314575195,12.1036739349365,12.1104230880737,12.1171798706055,12.1239442825317,12.1307172775269,12.1374969482422,12.1442842483521,12.1510791778564,12.1578817367554,12.1646919250488,12.1715097427368,12.1783351898193,12.1851682662964,12.192008972168,12.1988573074341,12.2057132720947,12.2125768661499,12.2194490432739,12.2263278961182,12.2332153320312,12.2401094436646,12.2470121383667,12.2539224624634,12.2608413696289,12.2677669525146,12.2747011184692,12.281641960144,12.288592338562,12.2955493927002,12.3025150299072,12.3094882965088,12.3164691925049,12.3234577178955,12.330454826355,12.337459564209,12.3444728851318,12.3514938354492,12.3585224151611,12.3655595779419,12.3726043701172,12.379656791687,12.3867177963257,12.3937864303589,12.4008636474609,12.4079494476318,12.4150419235229,12.4221439361572,12.429253578186,12.4363708496094,12.4434967041016,12.4506301879883,12.4577722549438,12.4649229049683,12.4720811843872,12.479248046875,12.4864234924316,12.4936065673828,12.5007982254028,12.5079984664917,12.5237760543823,12.5397615432739,12.5557870864868,12.5718545913696,12.587963104248,12.6041135787964,12.620304107666,12.6365375518799,13.0611057281494,13.0760059356689
8.27974510192871,8.28001594543457,8.28028678894043,8.28055763244629,8.28082847595215,8.28109931945801,8.28137111663818,8.28164196014404,8.2819128036499,8.28218364715576,8.28245449066162,8.28272533416748,8.28299713134766,8.28326797485352,8.28353881835938,8.28380966186523,8.28408145904541,8.30506038665771,8.33415699005127,8.36345767974854,8.39296627044678,8.422682762146,8.45261096954346,8.48275279998779,8.51311016082764,8.54368495941162,8.57448101043701,8.60550022125244,8.63674354553223,8.66821575164795,8.69991683959961,8.73185157775879,8.7640209197998,8.79642868041992,8.82907772064209,8.86196899414062,8.89510631561279,8.92849254608154,8.96213054656982,8.99602222442627,9.03017234802246,9.06458187103271,9.09925556182861,9.13419437408447,9.16940307617188,9.20488452911377,9.24064159393311,9.27667713165283,9.31299495697021,9.3495979309082,9.38648986816406,9.42367458343506,9.46115493774414,9.49893379211426,9.53701591491699,9.57540321350098,9.61410140991211,9.65311431884766,9.69244480133057,9.73209667205811,9.77207469940186,9.81238269805908,9.85302352905273,9.89400386810303,11.5445604324341,11.5449390411377,11.5453176498413,11.5456962585449,11.5460748672485,11.5464534759521,11.5468320846558,11.5472106933594,11.547589302063,11.5479679107666,11.5483465194702,11.5487251281738,11.5491037368774,11.5494823455811,11.5498609542847,11.5502395629883,11.5506181716919,11.5509977340698,11.5513763427734,11.5517549514771,11.552134513855,11.5525131225586,11.5528917312622,11.5532712936401,11.5536499023438,11.5540285110474,11.5544080734253,11.5547866821289,11.5551662445068,11.5555448532104,11.5559244155884,11.5563039779663,11.5566825866699,11.5570621490479,11.5574407577515,11.6106042861938,11.6676769256592,11.7253122329712,11.7835206985474,11.8423099517822,11.8653154373169,11.8681030273438,11.8708925247192,11.873682975769,11.8764743804932,11.8792667388916,11.8820610046387,11.8848562240601,11.8876533508301,11.8904514312744,11.8932504653931,11.8960514068604,11.898853302002,11.9016571044922,11.9044609069824,11.9072675704956,11.9100742340088,11.9128837585449,11.9156932830811,11.9185047149658,11.9213171005249,11.9241313934326,11.9269466400146,11.929762840271,11.932580947876,11.9354000091553,11.9382209777832,11.9410429000854,11.943865776062,11.9466905593872,11.9495162963867,11.9523439407349,11.9551725387573,11.9580020904541,11.9608335494995,11.9636659622192,11.9665002822876,11.9693355560303,11.9721717834473,11.9750099182129,11.9778499603271,11.9806909561157,11.9835329055786,11.9863767623901,11.9892225265503,11.9920692443848,11.9949169158936,11.997766494751,12.0006170272827,12.0034685134888,12.0063219070435,12.0091762542725,12.0120325088501,12.0148906707764,12.0177488327026,12.0206089019775,12.0234708786011,12.0263338088989,12.0291976928711,12.0320634841919,12.034930229187,12.0377988815308,12.0406684875488,12.0435390472412,12.0464115142822,12.052282333374,12.0589752197266,12.0656747817993,12.0723819732666,12.0790967941284,12.0858192443848,12.0925483703613,12.0992860794067,12.1060304641724,12.1127824783325,12.1195421218872,12.1263093948364,12.1330842971802,12.1398668289185,12.1466569900513,12.1534538269043,12.1602592468262,12.1670722961426,12.1738929748535,12.1807203292847,12.1875562667847,12.1943998336792,12.2012510299683,12.2081098556519,12.21497631073,12.2218503952026,12.2287330627441,12.2356224060059,12.2425203323364,12.2494249343872,12.2563381195068,12.263258934021,12.270188331604,12.2771244049072,12.2840690612793,12.2910213470459,12.297981262207,12.304949760437,12.3119258880615,12.3189096450806,12.3259010314941,12.3329010009766,12.3399085998535,12.346923828125,12.3539476394653,12.3609790802002,12.3680191040039,12.3750667572021,12.3821220397949,12.3891859054565,12.3962574005127,12.4033374786377,12.4104261398315,12.4175214767456,12.4246263504028,12.4317388534546,12.4388589859009,12.445987701416,12.4531240463257,12.4602689743042,12.4674224853516,12.4745836257935,12.4817533493042,12.4889316558838,12.4961175918579,12.5033121109009,12.5105152130127,12.517725944519,12.5249452590942,12.5321731567383,12.5394086837769,12.5466537475586,12.5539064407349,12.56116771698,12.5684366226196,12.5775709152222,12.5936946868896,12.6098585128784
8.27985858917236,8.28012943267822,8.28040027618408,8.28067111968994,8.2809419631958,8.28121280670166,8.28148365020752,8.28175449371338,8.28202533721924,8.28229713439941,8.28256797790527,8.28283882141113,8.28310966491699,8.28338050842285,8.28365230560303,8.28392314910889,8.28419399261475,8.30521869659424,8.33431625366211,8.36361885070801,8.39312744140625,8.4228458404541,8.45277500152588,8.48291778564453,8.51327610015869,8.54385280609131,8.57464981079102,8.60566997528076,8.63691520690918,8.6683874130249,8.70009136199951,8.73202705383301,8.76419734954834,8.79660701751709,8.82925605773926,8.86214923858643,8.89528846740723,8.92867565155029,8.96231460571289,8.99620819091797,9.03035926818848,9.06477069854736,9.09944534301758,9.13438606262207,9.16959667205811,9.20507907867432,9.24083709716797,9.27687454223633,9.31319427490234,9.34979915618896,9.38669300079346,9.42387866973877,9.46136093139648,9.49914073944092,9.53722381591797,9.5756139755249,9.61431407928467,9.65332794189453,9.69266033172607,9.73231410980225,9.77229309082031,9.81260299682617,9.85324668884277,9.89422798156738,11.5447187423706,11.5450973510742,11.5454759597778,11.5458545684814,11.5462322235107,11.5466108322144,11.546989440918,11.5473680496216,11.5477466583252,11.5481252670288,11.5485038757324,11.5488834381104,11.549262046814,11.5496406555176,11.5500192642212,11.5503978729248,11.5507764816284,11.5511560440063,11.55153465271,11.5519132614136,11.5522918701172,11.5526714324951,11.5530500411987,11.5534286499023,11.5538082122803,11.5541868209839,11.5545663833618,11.5549449920654,11.5553245544434,11.555703163147,11.5560827255249,11.5564622879028,11.5568408966064,11.5572204589844,11.557599067688,11.610915184021,11.6679906845093,11.7256298065186,11.7838411331177,11.8426332473755,11.9020147323608,11.9619951248169,11.8799533843994,11.8827476501465,11.8855438232422,11.8883409500122,11.8911390304565,11.8939390182495,11.8967399597168,11.8995418548584,11.9023456573486,11.9051513671875,11.9079570770264,11.9107646942139,11.91357421875,11.9163837432861,11.9191961288452,11.9220085144043,11.924822807312,11.9276390075684,11.9304552078247,11.9332733154297,11.9360933303833,11.9389142990112,11.9417362213135,11.9445600509644,11.9473848342896,11.9502115249634,11.9530391693115,11.955867767334,11.9586982727051,11.9615297317505,11.9643630981445,11.9671974182129,11.9700326919556,11.9728698730469,11.9757080078125,11.9785480499268,11.9813890457153,11.9842309951782,11.9870748519897,11.9899196624756,11.9927663803101,11.9956140518188,11.9984636306763,12.0013151168823,12.0041675567627,12.0070209503174,12.0098762512207,12.0127325057983,12.0155906677246,12.0184497833252,12.0213098526001,12.0241718292236,12.0270347595215,12.029899597168,12.0327653884888,12.0356330871582,12.038501739502,12.04137134552,12.0442428588867,12.0471153259277,12.0499897003174,12.0528650283813,12.0557422637939,12.0613145828247,12.0680170059204,12.0747270584106,12.0814437866211,12.0881690979004,12.0949010848999,12.1016407012939,12.1083879470825,12.1151428222656,12.1219053268433,12.1286745071411,12.1354522705078,12.142237663269,12.1490297317505,12.1558303833008,12.1626377105713,12.1694536209106,12.1762762069702,12.1831073760986,12.1899461746216,12.1967916488647,12.2036457061768,12.2105073928833,12.2173767089844,12.22425365448,12.2311382293701,12.2380304336548,12.2449312210083,12.251838684082,12.2587547302246,12.2656784057617,12.2726097106934,12.2795495986938,12.2864961624146,12.2934513092041,12.3004140853882,12.3073854446411,12.3143634796143,12.3213500976562,12.3283452987671,12.3353471755981,12.342357635498,12.3493766784668,12.3564033508301,12.3634376525879,12.3704795837402,12.3775300979614,12.3845891952515,12.3916549682617,12.3987302780151,12.4058122634888,12.4129037857056,12.4200019836426,12.4271097183228,12.4342241287231,12.4413480758667,12.4484796524048,12.4556188583374,12.4627666473389,12.4699230194092,12.477087020874,12.4842596054077,12.4914407730103,12.4986295700073,12.5058269500732,12.513032913208,12.5202465057373,12.5274686813354,12.5346994400024,12.5419387817383,12.5491857528687,12.5564413070679,12.5637054443359,12.5709781646729,12.5782594680786,12.5855484008789,12.592845916748,12.600152015686
8.2799711227417,8.28024196624756,8.28051280975342,8.28078365325928,8.28105449676514,8.28132629394531,8.28159713745117,8.28186798095703,8.28213882446289,8.28240966796875,8.28268051147461,8.28295230865479,8.28322315216064,8.2834939956665,8.28376483917236,8.28403663635254,8.2843074798584,8.30537700653076,8.33447551727295,8.36377906799316,8.39328956604004,8.42300891876221,8.4529390335083,8.48308372497559,8.51344299316406,8.544020652771,8.57481956481934,8.6058406829834,8.63708686828613,8.66856098175049,8.7002649307251,8.73220157623291,8.76437473297119,8.79678440093994,8.82943534851074,8.86232948303223,8.89546966552734,8.92885875701904,8.96249961853027,8.99639511108398,9.03054714202881,9.06495952606201,9.09963607788086,9.13457775115967,9.16978931427002,9.20527362823486,9.24103355407715,9.27707195281982,9.31339359283447,9.34999942779541,9.38689517974854,9.42408275604248,9.46156597137451,9.49934768676758,9.53743267059326,9.57582378387451,9.61452579498291,9.65354156494141,9.69287586212158,9.73253059387207,9.77251243591309,9.81282424926758,9.8534688949585,9.89445209503174,11.5448770523071,11.5452556610107,11.54563331604,11.5460119247437,11.5463905334473,11.5467691421509,11.5471477508545,11.5475263595581,11.5479049682617,11.5482835769653,11.5486621856689,11.5490407943726,11.5494194030762,11.5497989654541,11.5501775741577,11.5505561828613,11.5509347915649,11.5513134002686,11.5516929626465,11.5520715713501,11.5524501800537,11.5528297424316,11.5532083511353,11.5535869598389,11.5539665222168,11.5543451309204,11.5547246932983,11.555103302002,11.5554828643799,11.5558614730835,11.5562410354614,11.5566205978394,11.556999206543,11.5573787689209,11.5577573776245,11.6112260818481,11.6683044433594,11.7259464263916,11.7841606140137,11.8429565429688,11.9023418426514,11.9623250961304,11.9957504272461,11.9981107711792,12.0004720687866,12.0028343200684,12.0051975250244,12.0075607299805,11.9058408737183,11.9086475372314,11.9114551544189,11.9142646789551,11.9170751571655,11.9198865890503,11.9226999282837,11.9255151748657,11.9283304214478,11.9311485290527,11.9339666366577,11.9367866516113,11.9396076202393,11.9424304962158,11.9452543258667,11.9480800628662,11.9509057998657,11.9537343978882,11.9565629959106,11.9593944549561,11.9622259140015,11.9650592803955,11.9678936004639,11.9707298278809,11.9735670089722,11.9764060974121,11.9792461395264,11.9820871353149,11.9849300384521,11.9877738952637,11.9906196594238,11.9934663772583,11.9963140487671,11.9991636276245,12.0020141601562,12.0048666000366,12.0077199935913,12.0105752944946,12.0134325027466,12.0162906646729,12.0191497802734,12.0220108032227,12.0248727798462,12.0277366638184,12.0306015014648,12.0334672927856,12.0363349914551,12.0392036437988,12.0420742034912,12.0449457168579,12.0478191375732,12.0506935119629,12.0535697937012,12.0564470291138,12.0593252182007,12.0622053146362,12.0650863647461,12.0703592300415,12.0770721435547,12.0837917327881,12.090518951416,12.0972537994385,12.1039962768555,12.110746383667,12.117504119873,12.1242685317993,12.1310415267944,12.1378211975098,12.1446094512939,12.1514043807983,12.1582069396973,12.165018081665,12.171835899353,12.1786613464355,12.1854953765869,12.1923360824585,12.1991853713989,12.2060413360596,12.2129058837891,12.2197780609131,12.2266578674316,12.2335453033447,12.2404403686523,12.2473430633545,12.2542533874512,12.2611722946167,12.2680988311768,12.2750329971313,12.2819747924805,12.2889251708984,12.2958831787109,12.302848815918,12.3098220825195,12.3168029785156,12.3237924575806,12.3307905197144,12.3377952575684,12.3448085784912,12.3518295288086,12.3588590621948,12.3658962249756,12.3729419708252,12.379994392395,12.387056350708,12.3941259384155,12.4012031555176,12.4082889556885,12.4153823852539,12.4224834442139,12.429594039917,12.4367113113403,12.4438381195068,12.4509725570679,12.4581146240234,12.4652652740479,12.4724245071411,12.4795913696289,12.4867668151855,12.493950843811,12.5011425018311,12.5083427429199,12.5155515670776,12.5227680206299,12.5299940109253,12.5372266769409,12.5444688796997,12.551718711853,12.5589780807495,12.5662450790405,12.5735206604004,12.5808038711548,12.5880966186523,12.5953969955444,12.6027059555054,12.6100244522095
8.28008460998535,8.28035545349121,8.28062629699707,8.28089714050293,8.28116798400879,8.28143882751465,8.28170967102051,8.28198051452637,8.28225231170654,8.2825231552124,8.28279399871826,8.28306484222412,8.28333568572998,8.28360748291016,8.28387832641602,8.28414916992188,8.28442096710205,8.30553531646729,8.33463573455811,8.36394023895264,8.39345169067383,8.42317199707031,8.45310401916504,8.48324871063232,8.51360988616943,8.54418849945068,8.57498836517334,8.60601043701172,8.63725757598877,8.66873359680176,8.70043849945068,8.73237705230713,8.76455116271973,8.79696273803711,8.82961463928223,8.86251068115234,8.89565181732178,8.92904186248779,8.96268463134766,8.99658107757568,9.03073406219482,9.06514835357666,9.09982585906982,9.13476943969727,9.16998291015625,9.20546817779541,9.24123001098633,9.27727031707764,9.3135929107666,9.35020065307617,9.38709735870361,9.42428684234619,9.46177101135254,9.49955463409424,9.53764152526855,9.57603454589844,9.61473751068115,9.65375518798828,9.69309043884277,9.73274803161621,9.77273178100586,9.81304454803467,9.85369205474854,9.89467716217041,11.5450344085693,11.5454130172729,11.5457916259766,11.5461702346802,11.5465488433838,11.5469274520874,11.547306060791,11.5476846694946,11.5480632781982,11.5484418869019,11.5488204956055,11.5491991043091,11.5495777130127,11.5499563217163,11.5503349304199,11.5507144927979,11.5510931015015,11.5514717102051,11.5518503189087,11.5522298812866,11.5526084899902,11.5529870986938,11.5533666610718,11.5537452697754,11.5541248321533,11.5545034408569,11.5548830032349,11.5552616119385,11.5556411743164,11.55601978302,11.5563993453979,11.5567789077759,11.5571575164795,11.5575370788574,11.557915687561,11.6115369796753,11.6686182022095,11.726263999939,11.784481048584,11.843279838562,11.9026679992676,11.9626550674438,11.9912433624268,11.9936017990112,11.99596118927,11.9983215332031,12.0006828308105,12.0030450820923,12.0054082870483,12.0077724456787,12.0101366043091,12.0125026702881,12.0148696899414,11.9290227890015,11.9318408966064,11.9346599578857,11.9374799728394,11.9403018951416,11.9431247711182,11.945948600769,11.9487743377686,11.9516010284424,11.9544296264648,11.9572591781616,11.9600896835327,11.9629220962524,11.9657554626465,11.9685907363892,11.9714269638062,11.9742650985718,11.9771041870117,11.979944229126,11.9827861785889,11.9856290817261,11.9884729385376,11.9913187026978,11.9941663742065,11.9970149993896,11.9998645782471,12.0027151107788,12.0055675506592,12.0084218978882,12.0112771987915,12.0141334533691,12.0169916152954,12.019850730896,12.0227117538452,12.0255737304688,12.0284376144409,12.0313034057617,12.0341691970825,12.0370378494263,12.03990650177,12.0427780151367,12.0456495285034,12.0485229492188,12.0513982772827,12.054274559021,12.0571517944336,12.0600309371948,12.0629110336304,12.0657930374146,12.068675994873,12.0715599060059,12.0744457244873,12.079418182373,12.0861406326294,12.0928707122803,12.0996084213257,12.1063537597656,12.1131057739258,12.1198663711548,12.126633644104,12.1334085464478,12.140191078186,12.1469821929932,12.1537799835205,12.1605854034424,12.1673984527588,12.1742191314697,12.1810474395752,12.1878843307495,12.194727897644,12.2015790939331,12.2084379196167,12.2153053283691,12.2221803665161,12.2290620803833,12.2359523773193,12.2428503036499,12.249755859375,12.2566699981689,12.2635908126831,12.2705202102661,12.2774572372437,12.2844018936157,12.2913541793823,12.2983150482178,12.3052835464478,12.3122596740723,12.3192434310913,12.3262357711792,12.3332357406616,12.3402442932129,12.3472604751587,12.354284286499,12.3613166809082,12.3683557510376,12.3754043579102,12.3824605941772,12.3895244598389,12.3965969085693,12.4036769866943,12.4107656478882,12.4178619384766,12.4249668121338,12.4320793151855,12.4392004013062,12.4463291168213,12.4534664154053,12.4606113433838,12.4677648544312,12.4749269485474,12.4820966720581,12.489275932312,12.4964618682861,12.5036563873291,12.5108594894409,12.5180711746216,12.5252914428711,12.5325193405151,12.539755821228,12.5469999313354,12.554253578186,12.5615148544312,12.5687847137451,12.5760631561279,12.5833501815796,12.5906457901001,12.5979490280151,12.6052618026733,12.6125822067261,12.6199111938477
8.28019714355469,8.28046798706055,8.28073883056641,8.28101062774658,8.28128147125244,8.2815523147583,8.28182315826416,8.28209400177002,8.28236484527588,8.28263568878174,8.28290748596191,8.28317832946777,8.28344917297363,8.28372001647949,8.28399181365967,8.28426265716553,8.28453350067139,8.30569458007812,8.33479499816895,8.36410140991211,8.39361381530762,8.42333507537842,8.45326805114746,8.48341464996338,8.51377582550049,8.54435634613037,8.57515716552734,8.60618019104004,8.63742923736572,8.66890621185303,8.70061302185059,8.73255252838135,8.76472759246826,8.79714012145996,8.82979393005371,8.86269092559814,8.89583396911621,8.92922592163086,8.96286869049072,8.99676704406738,9.03092193603516,9.06533718109131,9.10001659393311,9.13496112823486,9.17017650604248,9.20566368103027,9.24142646789551,9.27746772766113,9.31379222869873,9.35040187835693,9.38730049133301,9.4244909286499,9.46197605133057,9.4997615814209,9.53784942626953,9.57624435424805,9.61494922637939,9.65396881103516,9.69330596923828,9.73296546936035,9.77295017242432,9.81326580047607,9.85391426086426,9.89490127563477,11.5451927185059,11.5455713272095,11.5459499359131,11.5463285446167,11.5467071533203,11.5470848083496,11.5474634170532,11.5478420257568,11.5482215881348,11.5486001968384,11.548978805542,11.5493574142456,11.5497360229492,11.5501146316528,11.5504932403564,11.5508718490601,11.551251411438,11.5516300201416,11.5520086288452,11.5523881912231,11.5527667999268,11.5531454086304,11.5535249710083,11.5539035797119,11.5542831420898,11.5546617507935,11.5550413131714,11.555419921875,11.5557994842529,11.5561780929565,11.5565576553345,11.5569362640381,11.557315826416,11.5576953887939,11.5580739974976,11.6118478775024,11.6689319610596,11.726580619812,11.7848014831543,11.8436031341553,11.9029951095581,11.9629850387573,11.9867391586304,11.9890956878662,11.9914531707764,11.9938116073608,11.9961709976196,11.9985313415527,12.0008935928345,12.0032558441162,12.0056190490723,12.0079832077026,12.0103483200073,12.0127143859863,12.0150804519653,12.017448425293,12.0198173522949,12.0221872329712,12.0245580673218,11.9551248550415,11.9579544067383,11.9607858657837,11.9636182785034,11.9664525985718,11.9692878723145,11.9721240997314,11.9749622344971,11.9778022766113,11.9806423187256,11.9834842681885,11.986328125,11.9891729354858,11.992018699646,11.9948663711548,11.9977149963379,12.0005645751953,12.0034160614014,12.0062694549561,12.0091238021851,12.0119791030884,12.0148363113403,12.0176944732666,12.0205535888672,12.0234146118164,12.0262775421143,12.0291414260864,12.0320062637329,12.0348720550537,12.0377407073975,12.0406093597412,12.0434808731079,12.0463533401489,12.0492267608643,12.0521020889282,12.0549783706665,12.0578565597534,12.0607357025146,12.0636167526245,12.0664987564087,12.0693817138672,12.0722665786743,12.0751523971558,12.0780401229858,12.0809297561646,12.0838193893433,12.088490486145,12.0952234268188,12.1019630432129,12.1087112426758,12.1154661178589,12.1222286224365,12.1289987564087,12.1357774734497,12.1425628662109,12.1493558883667,12.1561555862427,12.1629638671875,12.1697797775269,12.1766033172607,12.1834344863892,12.1902732849121,12.1971197128296,12.2039737701416,12.2108364105225,12.2177057266235,12.2245826721191,12.2314682006836,12.2383613586426,12.2452611923218,12.2521696090698,12.2590866088867,12.2660102844238,12.2729415893555,12.279881477356,12.286828994751,12.2937850952148,12.3007478713989,12.3077192306519,12.3146982192993,12.3216848373413,12.3286800384521,12.3356828689575,12.3426942825317,12.3497123718262,12.3567390441895,12.3637742996216,12.3708171844482,12.3778676986694,12.3849267959595,12.391993522644,12.3990688323975,12.4061517715454,12.4132432937622,12.4203424453735,12.4274501800537,12.4345655441284,12.441689491272,12.4488210678101,12.455961227417,12.4631090164185,12.4702663421631,12.4774303436279,12.4846038818359,12.4917850494385,12.4989738464355,12.5061721801758,12.5133781433105,12.5205917358398,12.5278148651123,12.5350456237793,12.5422849655151,12.5495328903198,12.556788444519,12.5640535354614,12.5713262557983,12.5786075592041,12.5858974456787,12.5931959152222,12.6005020141602,12.6078176498413,12.615140914917,12.6224727630615,12.6298141479492
8.28031063079834,8.2805814743042,8.28085231781006,8.28112316131592,8.28139400482178,8.28166484832764,8.28193664550781,8.28220748901367,8.28247833251953,8.28274917602539,8.28302001953125,8.28329086303711,8.28356266021729,8.28383350372314,8.284104347229,8.28437614440918,8.28464698791504,8.30585289001465,8.3349552154541,8.36426162719727,8.39377498626709,8.42349815368652,8.45343208312988,8.48357963562012,8.51394271850586,8.54452419281006,8.57532596588135,8.60635089874268,8.63760089874268,8.6690788269043,8.70078659057617,8.73272800445557,8.7649040222168,8.79731845855713,8.8299732208252,8.86287117004395,8.89601516723633,8.92940902709961,8.96305370330811,8.99695301055908,9.03110885620117,9.06552600860596,9.10020637512207,9.13515281677246,9.17036914825439,9.20585823059082,9.24162197113037,9.27766609191895,9.31399154663086,9.3506031036377,9.38750267028809,9.4246940612793,9.46218204498291,9.49996852874756,9.53805828094482,9.57645511627197,9.61516189575195,9.65418243408203,9.69352149963379,9.73318290710449,9.77316951751709,9.81348609924316,9.85413646697998,9.89512538909912,11.5453510284424,11.5457286834717,11.5461072921753,11.5464859008789,11.5468645095825,11.5472431182861,11.5476217269897,11.5480003356934,11.548378944397,11.5487575531006,11.5491361618042,11.5495157241821,11.5498943328857,11.5502729415894,11.550651550293,11.5510301589966,11.5514097213745,11.5517883300781,11.5521669387817,11.5525455474854,11.5529251098633,11.5533037185669,11.5536832809448,11.5540618896484,11.5544414520264,11.55482006073,11.5551996231079,11.5555782318115,11.5559577941895,11.5563364028931,11.556715965271,11.5570945739746,11.5574741363525,11.5578536987305,11.5582323074341,11.6121587753296,11.669246673584,11.7268981933594,11.7851219177246,11.8439264297485,11.9033212661743,11.9633150100708,11.9822378158569,11.9845933914185,11.98694896698,11.9893054962158,11.9916639328003,11.9940223693848,11.9963817596436,11.9987421035767,12.0011034011841,12.0034666061401,12.0058298110962,12.0081939697266,12.0105590820312,12.0129251480103,12.0152921676636,12.0176601409912,12.0200290679932,12.0223989486694,12.02476978302,12.0271415710449,12.0295133590698,12.0318870544434,11.9785003662109,11.9813413619995,11.9841833114624,11.9870271682739,11.9898719787598,11.9927186965942,11.995566368103,11.9984149932861,12.0012655258179,12.0041179656982,12.0069704055786,12.0098257064819,12.0126810073853,12.0155382156372,12.0183973312378,12.0212574005127,12.0241184234619,12.0269813537598,12.0298452377319,12.0327100753784,12.0355768203735,12.0384454727173,12.0413150787354,12.0441856384277,12.0470581054688,12.0499315261841,12.052806854248,12.0556831359863,12.0585613250732,12.0614414215088,12.0643224716187,12.0672044754028,12.0700883865356,12.0729732513428,12.0758600234985,12.0787477493286,12.0816373825073,12.0845279693604,12.0874195098877,12.0903129577637,12.0932083129883,12.0975770950317,12.1043195724487,12.1110696792603,12.1178274154663,12.1245927810669,12.131365776062,12.1381464004517,12.1449346542358,12.1517295837402,12.1541938781738,12.1566171646118,12.1590414047241,12.1614665985107,12.1690950393677,12.1834802627563,12.1978988647461,12.2063703536987,12.2132349014282,12.2201070785522,12.2269868850708,12.2338752746582,12.2407703399658,12.2476739883423,12.2545852661133,12.2615041732788,12.2684307098389,12.2753648757935,12.2823076248169,12.2892580032349,12.2962160110474,12.3031816482544,12.3101558685303,12.3171377182007,12.3241271972656,12.3311252593994,12.3381309509277,12.3451442718506,12.3521661758423,12.3591957092285,12.3662338256836,12.3732795715332,12.3803329467773,12.387393951416,12.3944644927979,12.4015417098999,12.4086275100708,12.4157218933105,12.4228239059448,12.4299345016479,12.4370527267456,12.4441795349121,12.4513139724731,12.458456993103,12.4656076431274,12.472767829895,12.4799346923828,12.4871110916138,12.4942951202393,12.5014867782593,12.5086879730225,12.5158967971802,12.5231142044067,12.5303392410278,12.5375738143921,12.5448160171509,12.5520658493042,12.5593252182007,12.566593170166,12.5738687515259,12.5811529159546,12.5884456634521,12.5957469940186,12.6030559539795,12.6103744506836,12.6177015304565,12.625036239624,12.6323795318604,12.6397323608398
8.28042411804199,8.28069496154785,8.28096580505371,8.28123664855957,8.28150749206543,8.28177833557129,8.28204917907715,8.28232002258301,8.28259086608887,8.28286266326904,8.2831335067749,8.28340435028076,8.28367519378662,8.2839469909668,8.28421783447266,8.28448867797852,8.28476047515869,8.30601119995117,8.33511447906494,8.36442279815674,8.39393711090088,8.42366123199463,8.4535961151123,8.48374462127686,8.51410961151123,8.54469203948975,8.57549476623535,8.606520652771,8.63777256011963,8.66925144195557,8.70096111297607,8.73290252685547,8.76508045196533,8.79749584197998,8.83015251159668,8.86305141448975,8.89619731903076,8.92959213256836,8.96323776245117,8.99713897705078,9.0312967300415,9.06571483612061,9.10039710998535,9.13534450531006,9.17056274414062,9.20605278015137,9.24181842803955,9.27786350250244,9.31419086456299,9.35080337524414,9.38770484924316,9.42489814758301,9.46238708496094,9.50017547607422,9.53826713562012,9.57666492462158,9.6153736114502,9.65439605712891,9.6937370300293,9.73339939117432,9.77338886260986,9.81370735168457,9.85435962677002,9.89535045623779,11.5455083847046,11.5458869934082,11.5462656021118,11.5466442108154,11.547022819519,11.5474014282227,11.5477800369263,11.5481586456299,11.5485372543335,11.5489158630371,11.5492944717407,11.5496730804443,11.5500516891479,11.5504312515259,11.5508098602295,11.5511884689331,11.5515670776367,11.5519466400146,11.5523252487183,11.5527038574219,11.5530834197998,11.5534620285034,11.553840637207,11.554220199585,11.5545988082886,11.5549783706665,11.5553569793701,11.555736541748,11.556116104126,11.5564947128296,11.5568742752075,11.5572528839111,11.5576324462891,11.558012008667,11.5583915710449,11.6124696731567,11.6695604324341,11.7272148132324,11.7854423522949,11.8442497253418,11.9036483764648,11.9636449813843,11.9777412414551,11.9800939559937,11.9824485778809,11.9848031997681,11.9871587753296,11.9895162582397,11.9918737411499,11.9942321777344,11.9965925216675,11.9989528656006,12.001314163208,12.0036764144897,12.0060405731201,12.0084047317505,12.0107698440552,12.0131359100342,12.0155029296875,12.0178709030151,12.0202398300171,12.0226097106934,12.0249805450439,12.0273523330688,12.0297250747681,12.0320987701416,12.0344734191895,12.0368490219116,12.0392255783081,12.0416030883789,12.0048189163208,12.0076723098755,12.0105266571045,12.0133829116821,12.0162410736084,12.019100189209,12.0219602584839,12.0248222351074,12.0276851654053,12.0305490493774,12.0334148406982,12.0362825393677,12.0391502380371,12.0420207977295,12.0448913574219,12.0477638244629,12.0506381988525,12.0535135269165,12.0563898086548,12.0592679977417,12.0621480941772,12.0650281906128,12.0679111480713,12.0707950592041,12.0736799240112,12.076566696167,12.0794553756714,12.0823450088501,12.0852355957031,12.0881280899048,12.0910215377808,12.0939168930054,12.0968132019043,12.0997114181519,12.1026105880737,12.1066761016846,12.113429069519,12.120189666748,12.1269578933716,12.1337337493896,12.1398916244507,12.1423091888428,12.1447277069092,12.1471462249756,12.1495666503906,12.15198802948,12.1544103622437,12.1568336486816,12.1592569351196,12.1616821289062,12.1641082763672,12.1666803359985,12.181058883667,12.1954717636108,12.2099189758301,12.2244005203247,12.2389163970947,12.2534666061401,12.2639226913452,12.2708520889282,12.2777891159058,12.2847347259521,12.2916870117188,12.2986478805542,12.3056173324585,12.312593460083,12.3195781707764,12.3265705108643,12.333571434021,12.3405799865723,12.3475961685181,12.3546209335327,12.3616533279419,12.3686933517456,12.3757419586182,12.3827981948853,12.3898630142212,12.3969354629517,12.404016494751,12.4111051559448,12.4182014465332,12.4253063201904,12.4324197769165,12.4395408630371,12.4466705322266,12.4538078308105,12.4609537124634,12.4681081771851,12.4752702713013,12.482439994812,12.4896192550659,12.4968061447144,12.5040016174316,12.5112047195435,12.5184164047241,12.5256366729736,12.532865524292,12.5401020050049,12.5473470687866,12.5546007156372,12.5618629455566,12.5691328048706,12.5764122009277,12.5836992263794,12.5909948348999,12.5982990264893,12.6056118011475,12.6129322052002,12.6202621459961,12.6276006698608,12.6349468231201,12.6423025131226,12.6496658325195
8.28053665161133,8.28080749511719,8.28107833862305,8.28134918212891,8.28162002563477,8.28189182281494,8.2821626663208,8.28243350982666,8.28270435333252,8.28297519683838,8.28324699401855,8.28351783752441,8.28378868103027,8.28405952453613,8.28433132171631,8.28460216522217,8.28487300872803,8.3061695098877,8.3352746963501,8.36458301544189,8.39409923553467,8.42382431030273,8.45376014709473,8.48391056060791,8.5142765045166,8.54485988616943,8.57566452026367,8.60669136047363,8.63794422149658,8.66942405700684,8.70113468170166,8.73307800292969,8.76525688171387,8.79767417907715,8.83033180236816,8.86323261260986,8.8963794708252,8.92977523803711,8.96342277526855,8.99732494354248,9.03148460388184,9.06590366363525,9.10058689117432,9.13553714752197,9.17075634002686,9.20624732971191,9.24201488494873,9.27806186676025,9.31439018249512,9.3510046005249,9.38790702819824,9.4251012802124,9.46259212493896,9.50038242340088,9.53847599029541,9.57687568664551,9.61558532714844,9.65460968017578,9.6939525604248,9.73361682891846,9.77360725402832,9.81392765045166,9.85458183288574,9.89557456970215,11.5456666946411,11.5460453033447,11.5464239120483,11.546802520752,11.5471811294556,11.5475597381592,11.5479383468628,11.5483169555664,11.54869556427,11.5490741729736,11.5494527816772,11.5498313903809,11.5502099990845,11.5505886077881,11.550968170166,11.5513467788696,11.5517253875732,11.5521039962769,11.5524835586548,11.5528621673584,11.5532417297363,11.5536203384399,11.5539989471436,11.5543785095215,11.5547571182251,11.555136680603,11.5555152893066,11.5558948516846,11.5562744140625,11.5566530227661,11.557032585144,11.5574111938477,11.5577907562256,11.5581703186035,11.5585498809814,11.6127805709839,11.6698741912842,11.7275323867798,11.7857618331909,11.8445739746094,11.9039754867554,11.9639749526978,11.9732465744019,11.9755983352661,11.9779510498047,11.9803037643433,11.9826583862305,11.9850130081177,11.9873695373535,11.9897260665894,11.9920845031738,11.9944429397583,11.9968023300171,11.9991636276245,12.0015249252319,12.0038871765137,12.006251335144,12.0086154937744,12.0109806060791,12.0133466720581,12.0157146453857,12.0180826187134,12.0204515457153,12.0228214263916,12.0251922607422,12.0275640487671,12.0299367904663,12.0323104858398,12.0346851348877,12.0370607376099,12.0394372940063,12.0418148040771,12.0441932678223,12.0465726852417,12.0489530563354,12.0513343811035,12.0312538146973,12.0341196060181,12.0369873046875,12.0398559570312,12.0427255630493,12.0455980300903,12.0484704971313,12.051344871521,12.054220199585,12.0570974349976,12.0599756240845,12.06285572052,12.0657367706299,12.0686197280884,12.0715036392212,12.0743885040283,12.0772752761841,12.0801630020142,12.0830526351929,12.0859441757202,12.0888366699219,12.0917310714722,12.0946264266968,12.0975227355957,12.1004209518433,12.1033210754395,12.10622215271,12.1091241836548,12.1120281219482,12.1157903671265,12.1225528717041,12.1280345916748,12.1304473876953,12.1328611373901,12.135274887085,12.1376905441284,12.1401071548462,12.1425247192383,12.1449432373047,12.1473627090454,12.1497831344604,12.1522035598755,12.1546258926392,12.1570491790771,12.1594734191895,12.1618986129761,12.164324760437,12.1667518615723,12.1691799163818,12.1786394119263,12.1930465698242,12.2074880599976,12.2219638824463,12.2364730834961,12.2510185241699,12.2655973434448,12.2802114486694,12.2948598861694,12.3095436096191,12.3220195770264,12.3290157318115,12.3360185623169,12.3430299758911,12.3500490188599,12.3570756912231,12.3641109466553,12.3711547851562,12.3782052993774,12.3852653503418,12.3923320770264,12.3994073867798,12.4064912796021,12.4135828018188,12.4206819534302,12.4277906417847,12.4349060058594,12.4420299530029,12.4491624832153,12.4563026428223,12.463451385498,12.4706087112427,12.4777736663818,12.4849472045898,12.4921283721924,12.4993181228638,12.506516456604,12.5137224197388,12.5209379196167,12.5281610488892,12.5353918075562,12.5426321029663,12.549880027771,12.5571365356445,12.5644016265869,12.5716743469238,12.5789566040039,12.5862464904785,12.593544960022,12.6008520126343,12.6081676483154,12.6154918670654,12.6228246688843,12.6301651000977,12.6375150680542,12.6448736190796,12.6522397994995,12.6596155166626
8.28065013885498,8.28092098236084,8.2811918258667,8.28146266937256,8.28173351287842,8.28200435638428,8.28227519989014,8.28254699707031,8.28281784057617,8.28308868408203,8.28335952758789,8.28363037109375,8.28390216827393,8.28417301177979,8.28444385528564,8.28471565246582,8.28498649597168,8.30632877349854,8.33543395996094,8.36474418640137,8.39426136016846,8.42398738861084,8.45392513275146,8.48407554626465,8.51444244384766,8.54502773284912,8.57583332061768,8.60686111450195,8.63811492919922,8.66959667205811,8.70130920410156,8.73325347900391,8.7654333114624,8.7978515625,8.83051109313965,8.86341285705566,8.89656162261963,8.92995834350586,8.96360683441162,8.99751091003418,9.03167152404785,9.0660924911499,9.1007776260376,9.13572883605957,9.17094898223877,9.20644187927246,9.24221134185791,9.27825927734375,9.31458950042725,9.35120487213135,9.38810920715332,9.42530536651611,9.46279811859131,9.50058937072754,9.53868389129639,9.57708549499512,9.615797996521,9.65482425689697,9.69416809082031,9.7338342666626,9.77382659912109,9.81414890289307,9.85480499267578,9.89579963684082,11.5458250045776,11.5462026596069,11.5465812683105,11.5469598770142,11.5473384857178,11.5477170944214,11.548095703125,11.5484743118286,11.5488529205322,11.5492324829102,11.5496110916138,11.5499897003174,11.550368309021,11.5507469177246,11.5511255264282,11.5515050888062,11.5518836975098,11.5522623062134,11.5526418685913,11.5530204772949,11.5533990859985,11.5537786483765,11.5541572570801,11.554536819458,11.5549154281616,11.5552949905396,11.5556735992432,11.5560531616211,11.5564317703247,11.5568113327026,11.5571908950806,11.5575695037842,11.5579490661621,11.55832862854,11.558708190918,11.613091468811,11.6701879501343,11.7278490066528,11.7860822677612,11.8448972702026,11.9043016433716,11.9643049240112,11.9687566757202,11.9711055755615,11.9734563827515,11.9758081436157,11.9781608581543,11.9805135726929,11.9828681945801,11.9852228164673,11.9875793457031,11.9899368286133,11.9922943115234,11.9946537017822,11.997013092041,11.9993734359741,12.0017356872559,12.0040979385376,12.006462097168,12.0088262557983,12.011191368103,12.0135583877563,12.0159254074097,12.0182933807373,12.0206623077393,12.0230331420898,12.0254039764404,12.0277757644653,12.0301485061646,12.0325222015381,12.0348968505859,12.0372724533081,12.0396499633789,12.0420274734497,12.0444059371948,12.0467853546143,12.049165725708,12.0515470504761,12.0539293289185,12.0563125610352,12.0586967468262,12.0549278259277,12.0578050613403,12.0606832504272,12.0635633468628,12.066445350647,12.0693283081055,12.0722122192383,12.0750980377197,12.0779848098755,12.0808734893799,12.0837631225586,12.0866546630859,12.0895471572876,12.092173576355,12.0945720672607,12.0969715118408,12.0993719100952,12.1017732620239,12.104175567627,12.1065788269043,12.1089820861816,12.1113872528076,12.1137933731079,12.1162004470825,12.1186084747314,12.1210174560547,12.1234273910522,12.1258382797241,12.128249168396,12.1306619644165,12.1330757141113,12.1354904174805,12.1379060745239,12.1403226852417,12.1427402496338,12.1451587677002,12.1475782394409,12.149998664856,12.1524200439453,12.154842376709,12.157265663147,12.1596899032593,12.1621150970459,12.1645412445068,12.1669683456421,12.1693964004517,12.1718254089355,12.1762199401855,12.1906213760376,12.205057144165,12.2195272445679,12.2340316772461,12.2485704421997,12.2631435394287,12.2777519226074,12.2923946380615,12.3070726394653,12.3217849731445,12.3365335464478,12.3513174057007,12.366135597229,12.3806705474854,12.3877325057983,12.3948030471802,12.4018812179565,12.4089670181274,12.4160614013672,12.4231643676758,12.4302749633789,12.4373931884766,12.4445209503174,12.4516553878784,12.4587993621826,12.465950012207,12.4731101989746,12.4802780151367,12.4874544143677,12.4946384429932,12.5018310546875,12.5090322494507,12.5162420272827,12.5234594345093,12.5306854248047,12.5379199981689,12.5451622009277,12.5524129867554,12.5596723556519,12.5669403076172,12.5742168426514,12.5815019607544,12.588794708252,12.5960960388184,12.6034059524536,12.6107244491577,12.6180515289307,12.6253871917725,12.6327314376831,12.6400842666626,12.6474456787109,12.6548147201538,12.6621932983398,12.6695804595947
8.28076267242432,8.28103351593018,8.28130435943604,8.28157520294189,8.28184700012207,8.28211784362793,8.28238868713379,8.28265953063965,8.28293037414551,8.28320217132568,8.28347301483154,8.2837438583374,8.28401470184326,8.28428649902344,8.2845573425293,8.28482818603516,8.28509998321533,8.30648708343506,8.33559322357178,8.36490535736084,8.39442348480225,8.42415046691895,8.45408916473389,8.4842414855957,8.51460933685303,8.54519557952881,8.57600212097168,8.60703182220459,8.63828659057617,8.66976928710938,8.70148277282715,8.73342895507812,8.76560974121094,8.79802989959717,8.83068943023682,8.86359310150146,8.89674282073975,8.93014144897461,8.963791847229,8.99769687652588,9.03185939788818,9.06628227233887,9.10096836090088,9.13592052459717,9.171142578125,9.20663738250732,9.24240779876709,9.27845764160156,9.31478881835938,9.35140609741211,9.3883113861084,9.42550945281982,9.46300315856934,9.5007963180542,9.53889274597168,9.57729625701904,9.61600971221924,9.65503787994385,9.69438362121582,9.73405170440674,9.77404594421387,9.81436920166016,9.8550271987915,9.89602375030518,11.5459823608398,11.5463609695435,11.5467395782471,11.5471181869507,11.5474967956543,11.5478754043579,11.5482540130615,11.5486326217651,11.5490112304688,11.5493898391724,11.549768447876,11.5501480102539,11.5505266189575,11.5509052276611,11.5512838363647,11.5516633987427,11.5520420074463,11.5524206161499,11.5528001785278,11.5531787872314,11.5535573959351,11.553936958313,11.5543155670166,11.5546951293945,11.5550737380981,11.5554533004761,11.5558319091797,11.5562114715576,11.5565900802612,11.5569696426392,11.5573492050171,11.5577278137207,11.5581073760986,11.5584869384766,11.5588665008545,11.6134023666382,11.6705026626587,11.7281665802002,11.7864027023315,11.8452205657959,11.9046287536621,11.9619216918945,11.9642686843872,11.9666166305542,11.9689655303955,11.9713153839111,11.9736661911011,11.9760179519653,11.9783706665039,11.9807233810425,11.9830780029297,11.9854335784912,11.9877891540527,11.9901466369629,11.9925050735474,11.9948635101318,11.9972238540649,11.999584197998,12.0019464492798,12.0043087005615,12.0066728591919,12.0090370178223,12.0114030838013,12.0137691497803,12.0161361694336,12.0185050964355,12.0208740234375,12.0232439041138,12.0256147384644,12.0279874801636,12.0303602218628,12.0327339172363,12.0351085662842,12.0374851226807,12.0398616790771,12.0422391891479,12.0446176528931,12.0469970703125,12.0493774414062,12.0517587661743,12.0541410446167,12.0565252304077,12.0589094161987,12.0612945556641,12.0636806488037,12.0660676956177,12.068455696106,12.0708446502686,12.0732345581055,12.0756254196167,12.0780172348022,12.0804100036621,12.0828037261963,12.0851984024048,12.0875940322876,12.0899906158447,12.0923881530762,12.0947866439819,12.097186088562,12.0995855331421,12.1019868850708,12.1043891906738,12.1067924499512,12.1091966629028,12.1116018295288,12.1140079498291,12.1164150238037,12.1188230514526,12.1212320327759,12.1236419677734,12.1260528564453,12.1284646987915,12.130877494812,12.1332912445068,12.135705947876,12.1381216049194,12.1405382156372,12.1429557800293,12.1453742980957,12.1477937698364,12.1502141952515,12.1526355743408,12.1550579071045,12.1574811935425,12.1599063873291,12.1623315811157,12.1647577285767,12.1671848297119,12.1696128845215,12.1720418930054,12.1744728088379,12.1769037246704,12.1881980895996,12.2026281356812,12.2170915603638,12.2315902709961,12.2461233139038,12.2606906890869,12.2752933502197,12.2899303436279,12.3046026229858,12.3193092346191,12.3340511322021,12.3488292694092,12.3636417388916,12.378490447998,12.3933753967285,12.4082946777344,12.4232511520386,12.4382438659668,12.4470119476318,12.4541501998901,12.461296081543,12.4684505462646,12.4756126403809,12.4827833175659,12.4899625778198,12.4971504211426,12.5043458938599,12.511549949646,12.5187616348267,12.5259828567505,12.5332117080688,12.5404481887817,12.5476942062378,12.5549478530884,12.5622100830078,12.5694808959961,12.5767602920532,12.5840482711792,12.5913438796997,12.5986480712891,12.6059617996216,12.6132831573486,12.6206130981445,12.6279516220093,12.6352987289429,12.6426544189453,12.6500186920166,12.6573915481567,12.6647729873657,12.6721630096436,12.6795616149902
8.28087615966797,8.28114700317383,8.28141784667969,8.28168869018555,8.28195953369141,8.28223037719727,8.28250217437744,8.2827730178833,8.28304386138916,8.28331470489502,8.28358554840088,8.28385734558105,8.28412818908691,8.28439903259277,8.28467082977295,8.28494167327881,8.28521251678467,8.30664539337158,8.33575344085693,8.365065574646,8.39458465576172,8.42431354522705,8.45425319671631,8.48440647125244,8.5147762298584,8.5453634262085,8.57617092132568,8.60720157623291,8.63845825195312,8.66994190216064,8.70165634155273,8.73360443115234,8.76578712463379,8.79820728302002,8.8308687210083,8.86377429962158,8.89692497253418,8.93032455444336,8.96397686004639,8.99788284301758,9.0320463180542,9.06647109985352,9.10115814208984,9.13611221313477,9.17133617401123,9.20683193206787,9.24260425567627,9.27865505218506,9.3149881362915,9.35160636901855,9.38851356506348,9.42571258544922,9.46320819854736,9.50100326538086,9.53910160064697,9.57750606536865,9.61622142791748,9.65525150299072,9.69459915161133,9.73426914215088,9.77426433563232,9.81459045410156,9.85525035858154,9.89624881744385,11.5461406707764,11.54651927948,11.5468978881836,11.5472764968872,11.5476551055908,11.5480337142944,11.548412322998,11.5487909317017,11.5491695404053,11.5495481491089,11.5499267578125,11.5503053665161,11.550684928894,11.5510635375977,11.5514421463013,11.5518207550049,11.5522003173828,11.5525789260864,11.55295753479,11.553337097168,11.5537157058716,11.5540952682495,11.5544738769531,11.5548534393311,11.5552320480347,11.5556116104126,11.5559902191162,11.5563697814941,11.5567483901978,11.5571279525757,11.5575075149536,11.5578861236572,11.5582656860352,11.5586452484131,11.559024810791,11.6137132644653,11.6708164215088,11.7284832000732,11.7867231369019,11.8455438613892,11.9049549102783,11.9574403762817,11.9597854614258,11.9621315002441,11.9644784927368,11.9668264389038,11.9691753387451,11.9715251922607,11.9738759994507,11.9762277603149,11.9785804748535,11.9809331893921,11.9832878112793,11.9856433868408,11.9879999160767,11.9903564453125,11.992714881897,11.9950742721558,11.9974336624146,11.999794960022,12.0021572113037,12.0045194625854,12.0068836212158,12.0092477798462,12.0116138458252,12.0139799118042,12.0163478851318,12.0187158584595,12.0210847854614,12.023455619812,12.0258264541626,12.0281991958618,12.030571937561,12.0329456329346,12.0353202819824,12.0376968383789,12.0400733947754,12.0424509048462,12.0448303222656,12.0472097396851,12.0495901107788,12.0519714355469,12.0543537139893,12.056736946106,12.0591220855713,12.0615072250366,12.0638933181763,12.0662803649902,12.0686683654785,12.0710573196411,12.073447227478,12.0758380889893,12.0782299041748,12.0806226730347,12.0830173492432,12.0854120254517,12.0878076553345,12.0902042388916,12.092601776123,12.0950002670288,12.0973997116089,12.0998001098633,12.102201461792,12.104603767395,12.1070070266724,12.109411239624,12.11181640625,12.1142225265503,12.1166296005249,12.1190376281738,12.1214466094971,12.1238565444946,12.1262674331665,12.128680229187,12.1310930252075,12.1335067749023,12.1359214782715,12.1383371353149,12.1407537460327,12.1431713104248,12.1455898284912,12.1480093002319,12.1504306793213,12.1528520584106,12.1552743911743,12.1576976776123,12.1601219177246,12.1625471115112,12.1649742126465,12.1674013137817,12.1698293685913,12.1722593307495,12.1746892929077,12.1771202087402,12.1795520782471,12.1857748031616,12.2001991271973,12.2146577835083,12.2291507720947,12.2436771392822,12.2582397460938,12.2728357315063,12.2874670028687,12.3021326065063,12.3168344497681,12.3315706253052,12.346342086792,12.3611488342285,12.3759918212891,12.3908700942993,12.4057836532593,12.4207344055176,12.4357204437256,12.4507427215576,12.4658012390137,12.4808969497681,12.4960279464722,12.5068607330322,12.5140676498413,12.5212831497192,12.5285062789917,12.535737991333,12.5429782867432,12.5502271652222,12.5574836730957,12.5647487640381,12.5720224380493,12.5793046951294,12.5865955352783,12.5938940048218,12.6012020111084,12.6085176467896,12.6158418655396,12.6231756210327,12.6305170059204,12.637866973877,12.6452255249023,12.6525926589966,12.6599683761597,12.6673526763916,12.6747455596924,12.6821479797363,12.6895580291748
8.2809886932373,8.28125953674316,8.28153133392334,8.2818021774292,8.28207302093506,8.28234386444092,8.28261470794678,8.28288555145264,8.28315734863281,8.28342819213867,8.28369903564453,8.28396987915039,8.28424167633057,8.28451251983643,8.28478336334229,8.28505516052246,8.28532600402832,8.30680370330811,8.33591270446777,8.36522674560547,8.39474678039551,8.42447662353516,8.45441722869873,8.4845724105835,8.51494216918945,8.54553127288818,8.576340675354,8.60737228393555,8.63862991333008,8.67011547088623,8.70183086395264,8.73377895355225,8.76596355438232,8.79838562011719,8.83104801177979,8.86395454406738,8.89710712432861,8.93050861358643,8.96416091918945,8.99806880950928,9.03223419189453,9.06665992736816,9.10134887695312,9.13630390167236,9.17152881622314,9.20702648162842,9.24280071258545,9.27885246276855,9.31518745422363,9.351806640625,9.38871574401855,9.42591667175293,9.46341323852539,9.50121021270752,9.53931045532227,9.57771682739258,9.61643409729004,9.6554651260376,9.69481468200684,9.7344856262207,9.7744836807251,9.81481075286865,9.85547256469727,9.8964729309082,11.5462989807129,11.5466766357422,11.5470552444458,11.5474338531494,11.547812461853,11.5481910705566,11.5485706329346,11.5489492416382,11.5493278503418,11.5497064590454,11.550085067749,11.5504636764526,11.5508422851562,11.5512218475342,11.5516004562378,11.5519790649414,11.5523586273193,11.5527372360229,11.5531158447266,11.5534954071045,11.5538740158081,11.554253578186,11.5546321868896,11.5550107955933,11.5553903579712,11.5557699203491,11.5561485290527,11.5565280914307,11.5569067001343,11.5572862625122,11.5576658248901,11.5580444335938,11.5584239959717,11.5588035583496,11.5591831207275,11.6140251159668,11.6711301803589,11.7288007736206,11.7870435714722,11.8458681106567,11.9052820205688,11.9529609680176,11.9553050994873,11.957649230957,11.9599943161011,11.9623403549194,11.9646873474121,11.9670352935791,11.9693851470947,11.9717350006104,11.9740858078003,11.9764375686646,11.9787902832031,11.9811429977417,11.9834976196289,11.9858531951904,11.9882097244263,11.9905672073364,11.9929256439209,11.9952840805054,11.9976444244385,12.0000057220459,12.0023670196533,12.0047302246094,12.0070943832397,12.0094585418701,12.0118246078491,12.0141916275024,12.0165586471558,12.0189275741577,12.0212965011597,12.0236673355103,12.0260381698608,12.0284099578857,12.0307836532593,12.0331573486328,12.035532951355,12.0379085540771,12.0402851104736,12.0426635742188,12.0450420379639,12.0474214553833,12.0498027801514,12.0521841049194,12.0545663833618,12.0569496154785,12.0593347549438,12.0617198944092,12.0641059875488,12.0664930343628,12.0688810348511,12.071270942688,12.0736608505249,12.0760517120361,12.0784435272217,12.0808362960815,12.0832300186157,12.0856256484985,12.0880212783813,12.0904178619385,12.0928153991699,12.0952138900757,12.0976133346558,12.1000137329102,12.1024160385132,12.1048183441162,12.1072216033936,12.1096258163452,12.1120309829712,12.1144371032715,12.1168441772461,12.119252204895,12.1216621398926,12.1240720748901,12.126482963562,12.1288948059082,12.1313076019287,12.1337213516235,12.136137008667,12.1385526657104,12.1409692764282,12.1433868408203,12.1458053588867,12.1482257843018,12.1506462097168,12.1530675888062,12.1554899215698,12.1579141616821,12.1603384017944,12.1627635955811,12.1651906967163,12.1676177978516,12.1700458526611,12.1724758148193,12.1749057769775,12.1773366928101,12.1797695159912,12.1822023391724,12.1846370697021,12.197772026062,12.2122240066528,12.2267112731934,12.2412328720093,12.2557888031006,12.2703790664673,12.2850046157837,12.2996644973755,12.314359664917,12.3290901184082,12.3438558578491,12.3586568832397,12.3734941482544,12.3883657455444,12.4032745361328,12.4182176589966,12.4331979751587,12.4482145309448,12.463267326355,12.4783563613892,12.4934816360474,12.5086441040039,12.5238428115845,12.5390796661377,12.5543527603149,12.5672883987427,12.5745649337769,12.5818500518799,12.5891437530518,12.5964460372925,12.6037559509277,12.6110754013062,12.6184024810791,12.6257381439209,12.6330833435059,12.6404361724854,12.6477975845337,12.6551675796509,12.6625471115112,12.6699342727661,12.6773300170898,12.6847352981567,12.6921482086182,12.6995697021484
8.28110218048096,8.28137302398682,8.28164386749268,8.28191471099854,8.28218555450439,8.28245735168457,8.28272819519043,8.28299903869629,8.28326988220215,8.28354167938232,8.28381252288818,8.28408336639404,8.2843542098999,8.28462600708008,8.28489685058594,8.2851676940918,8.28543949127197,8.30696296691895,8.33607292175293,8.36538696289062,8.3949089050293,8.42463970184326,8.45458221435547,8.48473739624023,8.51510906219482,8.54569911956787,8.57650947570801,8.60754299163818,8.63880157470703,8.6702880859375,8.70200443267822,8.73395442962646,8.76613998413086,8.79856300354004,8.83122730255127,8.86413478851318,8.89728927612305,8.93069171905518,8.96434593200684,8.99825477600098,9.03242111206055,9.06684875488281,9.10153865814209,9.13649559020996,9.17172241210938,9.20722198486328,9.24299621582031,9.27905082702637,9.31538581848145,9.35200691223145,9.38891792297363,9.42611980438232,9.46361923217773,9.50141716003418,9.53951835632324,9.57792663574219,9.61664581298828,9.65567874908447,9.69503021240234,9.73470306396484,9.77470302581787,9.81503200531006,9.8556957244873,9.89669799804688,11.5464563369751,11.5468349456787,11.5472135543823,11.5475921630859,11.5479707717896,11.5483493804932,11.5487279891968,11.5491065979004,11.549485206604,11.5498647689819,11.5502433776855,11.5506219863892,11.5510005950928,11.5513792037964,11.5517587661743,11.5521373748779,11.5525159835815,11.5528955459595,11.5532741546631,11.553653717041,11.5540323257446,11.5544109344482,11.5547904968262,11.5551691055298,11.5555486679077,11.5559282302856,11.5563068389893,11.5566864013672,11.5570650100708,11.5574445724487,11.5578241348267,11.5582027435303,11.5585823059082,11.5589618682861,11.5593414306641,11.6143360137939,11.6714448928833,11.729118347168,11.7873640060425,11.84619140625,11.9056091308594,11.9484853744507,11.9508275985718,11.9531698226929,11.9555139541626,11.9578580856323,11.9602031707764,11.962550163269,11.9648971557617,11.9672451019287,11.96959400177,11.9719438552856,11.9742946624756,11.9766473770142,11.9790000915527,11.9813537597656,11.9837083816528,11.98606300354,11.9884195327759,11.990777015686,11.9931354522705,11.9954948425293,11.9978551864624,12.0002164840698,12.0025777816772,12.0049409866333,12.0073051452637,12.0096702575684,12.012035369873,12.0144023895264,12.0167694091797,12.0191383361816,12.0215082168579,12.0238780975342,12.0262498855591,12.028621673584,12.0309953689575,12.0333690643311,12.0357446670532,12.0381202697754,12.0404977798462,12.042875289917,12.0452537536621,12.0476341247559,12.0500144958496,12.052396774292,12.0547790527344,12.0571622848511,12.0595474243164,12.0619325637817,12.0643186569214,12.0667057037354,12.0690946578979,12.0714836120605,12.0738735198975,12.076265335083,12.0786571502686,12.0810499191284,12.0834436416626,12.0858392715454,12.0882349014282,12.0906314849854,12.0930290222168,12.0954275131226,12.097827911377,12.1002283096313,12.1026296615601,12.1050319671631,12.1074361801147,12.1098403930664,12.1122455596924,12.1146516799927,12.1170587539673,12.1194677352905,12.1218767166138,12.1242866516113,12.1266975402832,12.1291103363037,12.1315231323242,12.133936882019,12.1363515853882,12.138768196106,12.1411848068237,12.1436023712158,12.1460218429565,12.1484413146973,12.1508617401123,12.153284072876,12.1557064056396,12.1581296920776,12.1605548858643,12.1629800796509,12.1654071807861,12.1678342819214,12.170262336731,12.1726922988892,12.1751222610474,12.1775541305542,12.179986000061,12.1824197769165,12.184853553772,12.1872892379761,12.1953449249268,12.209792137146,12.2242736816406,12.2387886047363,12.2533388137817,12.2679233551025,12.282543182373,12.2971973419189,12.3118867874146,12.3266115188599,12.3413705825806,12.3561658859253,12.3709964752197,12.3858633041382,12.4007654190063,12.4157028198242,12.4306774139404,12.4456872940063,12.4607334136963,12.4758167266846,12.4909362792969,12.5060920715332,12.5212850570679,12.5365152359009,12.5517816543579,12.5670862197876,12.5824279785156,12.597806930542,12.613224029541,12.6283025741577,12.6356506347656,12.6430063247681,12.6503715515137,12.6577444076538,12.6651258468628,12.6725168228149,12.6799154281616,12.6873235702515,12.6947393417358,12.7021646499634,12.7095985412598
8.28121566772461,8.28148651123047,8.28175735473633,8.28202819824219,8.28229904174805,8.28256988525391,8.28284072875977,8.28311252593994,8.2833833694458,8.28365421295166,8.28392505645752,8.2841968536377,8.28446769714355,8.28473854064941,8.28501033782959,8.28528118133545,8.28555202484131,8.30712127685547,8.33623218536377,8.3655481338501,8.39507102966309,8.42480278015137,8.45474624633789,8.48490333557129,8.5152759552002,8.54586696624756,8.57667827606201,8.6077127456665,8.63897323608398,8.67046070098877,8.70217895507812,8.73412990570068,8.76631641387939,8.79874134063721,8.83140659332275,8.8643159866333,8.89747047424316,8.93087482452393,8.96453094482422,8.99844074249268,9.03260898590088,9.06703758239746,9.10172939300537,9.13668727874756,9.17191600799561,9.20741653442383,9.24319267272949,9.27924823760986,9.31558513641357,9.35220813751221,9.38912010192871,9.42632389068604,9.46382427215576,9.50162410736084,9.53972721099854,9.57813739776611,9.61685752868652,9.65589237213135,9.69524574279785,9.73492050170898,9.77492141723633,9.81525325775146,9.85591793060303,9.89692211151123,11.5466146469116,11.5469932556152,11.5473718643188,11.5477504730225,11.5481290817261,11.5485076904297,11.5488862991333,11.5492649078369,11.5496435165405,11.5500221252441,11.5504016876221,11.5507802963257,11.5511589050293,11.5515375137329,11.5519170761108,11.5522956848145,11.5526742935181,11.553053855896,11.5534324645996,11.5538110733032,11.5541906356812,11.5545692443848,11.5549488067627,11.5553274154663,11.5557069778442,11.5560855865479,11.5564651489258,11.5568447113037,11.5572233200073,11.5576028823853,11.5579824447632,11.5583610534668,11.5587406158447,11.5591201782227,11.5594997406006,11.6146469116211,11.6717586517334,11.729434967041,11.7876844406128,11.8465147018433,11.9059362411499,11.9440135955811,11.9463539123535,11.948694229126,11.9510364532471,11.9533786773682,11.9557228088379,11.9580669403076,11.960412979126,11.9627590179443,11.965106010437,11.9674549102783,11.9698038101196,11.9721536636353,11.9745044708252,11.9768562316895,11.9792098999023,11.9815635681152,11.9839181900024,11.986273765564,11.9886302947998,11.99098777771,11.9933462142944,11.9957056045532,11.9980659484863,12.0004262924194,12.0027885437012,12.0051517486572,12.0075159072876,12.0098810195923,12.012246131897,12.0146131515503,12.0169811248779,12.0193500518799,12.0217189788818,12.0240898132324,12.026460647583,12.0288333892822,12.0312070846558,12.0335807800293,12.0359563827515,12.0383319854736,12.0407094955444,12.0430870056152,12.0454664230347,12.0478458404541,12.0502271652222,12.0526084899902,12.0549917221069,12.0573749542236,12.059760093689,12.0621452331543,12.0645313262939,12.0669193267822,12.0693073272705,12.0716962814331,12.0740871429443,12.0764780044556,12.0788698196411,12.0812635421753,12.0836572647095,12.086051940918,12.0884485244751,12.0908451080322,12.0932426452637,12.0956420898438,12.0980415344238,12.1004419326782,12.1028442382812,12.1052465438843,12.1076498031616,12.1100549697876,12.1124601364136,12.1148662567139,12.1172742843628,12.1196823120117,12.122091293335,12.1245021820068,12.1269130706787,12.1293249130249,12.1317386627197,12.1341524124146,12.1365671157837,12.1389837265015,12.1414003372192,12.1438179016113,12.1462373733521,12.1486568450928,12.1510782241821,12.1534996032715,12.1559228897095,12.1583461761475,12.1607704162598,12.1631965637207,12.1656227111816,12.1680507659912,12.1704797744751,12.172908782959,12.1753396987915,12.177770614624,12.1802034378052,12.1826362609863,12.1850709915161,12.1875066757202,12.1899423599243,12.1929197311401,12.2073612213135,12.2218360900879,12.236346244812,12.2508897781372,12.2654685974121,12.2800827026367,12.2947311401367,12.3094148635864,12.3241329193115,12.3388872146606,12.3536758422852,12.3685007095337,12.3833608627319,12.3982572555542,12.4131889343262,12.4281568527222,12.4431610107422,12.4582014083862,12.4732780456543,12.4883909225464,12.5035409927368,12.5187282562256,12.5339517593384,12.5492124557495,12.564510345459,12.5798454284668,12.5952186584473,12.6106290817261,12.6260766983032,12.6415634155273,12.6570873260498,12.6726493835449,12.688250541687,12.6973323822021,12.7047595977783,12.7121963500977,12.7196426391602
8.28132820129395,8.2815990447998,8.28186988830566,8.28214168548584,8.2824125289917,8.28268337249756,8.28295421600342,8.28322505950928,8.28349685668945,8.28376770019531,8.28403854370117,8.28430938720703,8.28458118438721,8.28485202789307,8.28512287139893,8.2853946685791,8.28566551208496,8.30727958679199,8.33639240264893,8.36570930480957,8.39523315429688,8.42496585845947,8.45491027832031,8.48506832122803,8.51544189453125,8.54603481292725,8.57684707641602,8.60788345336914,8.63914394378662,8.67063331604004,8.70235252380371,8.7343053817749,8.76649284362793,8.79891967773438,8.83158588409424,8.8644962310791,8.8976526260376,8.93105792999268,8.96471500396729,8.99862670898438,9.03279685974121,9.06722640991211,9.10192012786865,9.13687992095947,9.17210865020752,9.20761108398438,9.24338912963867,9.27944564819336,9.3157844543457,9.35240840911865,9.38932132720947,9.42652797698975,9.46402931213379,9.5018310546875,9.53993606567383,9.57834720611572,9.61707019805908,9.65610599517822,9.69546127319336,9.73513793945312,9.7751407623291,9.81547355651855,9.85614109039307,9.8971471786499,11.5467729568481,11.5471515655518,11.5475301742554,11.547908782959,11.5482873916626,11.5486660003662,11.5490446090698,11.5494232177734,11.5498018264771,11.5501804351807,11.5505590438843,11.5509386062622,11.5513172149658,11.5516958236694,11.552074432373,11.552453994751,11.5528326034546,11.5532112121582,11.5535907745361,11.5539693832397,11.5543489456177,11.5547275543213,11.5551071166992,11.5554857254028,11.5558652877808,11.5562438964844,11.5566234588623,11.5570030212402,11.5573816299438,11.5577611923218,11.5581407546997,11.5585193634033,11.5588989257812,11.5592784881592,11.5596580505371,11.6149578094482,11.6720724105835,11.7297525405884,11.7880048751831,11.8468389511108,11.9062623977661,11.9395446777344,11.9418830871582,11.9442224502563,11.9465627670288,11.9489030838013,11.9512453079224,11.9535875320435,11.9559316635132,11.9582767486572,11.9606218338013,11.9629678726196,11.9653158187866,11.9676637649536,11.9700136184692,11.9723634719849,11.9747142791748,11.9770660400391,11.979419708252,11.9817733764648,11.9841279983521,11.9864835739136,11.9888401031494,11.9911975860596,11.993556022644,11.9959154129028,11.9982757568359,12.0006370544434,12.0029993057251,12.0053625106812,12.0077266693115,12.0100917816162,12.0124578475952,12.0148239135742,12.0171918869019,12.0195608139038,12.0219306945801,12.0243015289307,12.0266723632812,12.0290451049805,12.031418800354,12.0337924957275,12.0361680984497,12.0385446548462,12.0409212112427,12.0432996749878,12.0456781387329,12.0480585098267,12.0504388809204,12.0528211593628,12.0552034378052,12.0575876235962,12.0599727630615,12.0623579025269,12.0647439956665,12.0671319961548,12.0695199966431,12.07190990448,12.0742998123169,12.0766916275024,12.079083442688,12.0814771652222,12.0838708877563,12.0862655639648,12.088662147522,12.0910587310791,12.0934572219849,12.0958557128906,12.0982551574707,12.1006565093994,12.1030578613281,12.1054611206055,12.1078643798828,12.1102685928345,12.1126747131348,12.1150808334351,12.117488861084,12.1198968887329,12.1223068237305,12.124716758728,12.1271276473999,12.1295404434204,12.1319532394409,12.1343679428101,12.1367826461792,12.139199256897,12.1416158676147,12.1440343856812,12.1464529037476,12.1488733291626,12.1512937545776,12.1537160873413,12.156138420105,12.1585626602173,12.1609869003296,12.1634130477905,12.1658391952515,12.168267250061,12.1706962585449,12.1731252670288,12.1755561828613,12.1779880523682,12.180419921875,12.1828536987305,12.1852884292603,12.18772315979,12.1901597976685,12.1925973892212,12.1950359344482,12.204930305481,12.2194004058838,12.2339038848877,12.2484426498413,12.2630157470703,12.2776231765747,12.2922658920288,12.3069429397583,12.3216562271118,12.3364038467407,12.3511867523193,12.366005897522,12.3808603286743,12.3957500457764,12.4106760025024,12.4256381988525,12.4406356811523,12.4556703567505,12.4707403182983,12.4858474731445,12.5009918212891,12.5161724090576,12.5313892364502,12.5466442108154,12.5619354248047,12.5772647857666,12.5926313400269,12.6080350875854,12.6234769821167,12.6389570236206,12.6544742584229,12.6700305938721,12.6856241226196,12.7012567520142
8.2814416885376,8.28171253204346,8.28198337554932,8.28225421905518,8.28252506256104,8.28279685974121,8.28306770324707,8.28333854675293,8.28360939025879,8.28388023376465,8.28415203094482,8.28442287445068,8.28469371795654,8.28496551513672,8.28523635864258,8.28550815582275,8.28577899932861,8.30743885040283,8.33655166625977,8.36586952209473,8.39539527893066,8.42512893676758,8.45507431030273,8.48523426055908,8.51560878753662,8.54620265960693,8.57701683044434,8.60805320739746,8.63931560516357,8.67080593109131,8.70252704620361,8.73448085784912,8.76667022705078,8.79909706115723,8.83176517486572,8.8646764755249,8.89783477783203,8.93124103546143,8.96490001678467,8.99881362915039,9.03298377990723,9.06741523742676,9.10210990905762,9.13707160949707,9.17230224609375,9.20780563354492,9.24358558654785,9.27964305877686,9.31598281860352,9.3526086807251,9.38952350616455,9.42673110961914,9.46423530578613,9.50203800201416,9.54014492034912,9.57855796813965,9.61728191375732,9.65632057189941,9.69567680358887,9.73535537719727,9.77536010742188,9.81569480895996,9.85636425018311,9.89737129211426,11.5469303131104,11.547308921814,11.5476875305176,11.5480661392212,11.5484447479248,11.5488233566284,11.5492029190063,11.54958152771,11.5499601364136,11.5503387451172,11.5507173538208,11.5510959625244,11.5514755249023,11.551854133606,11.5522327423096,11.5526123046875,11.5529909133911,11.5533695220947,11.5537490844727,11.5541276931763,11.5545072555542,11.5548858642578,11.5552654266357,11.5556440353394,11.5560235977173,11.5564022064209,11.5567817687988,11.5571613311768,11.5575399398804,11.5579195022583,11.5582990646362,11.5586786270142,11.5590572357178,11.5594367980957,11.5598163604736,11.6152687072754,11.6723871231079,11.7300691604614,11.7883253097534,11.8471622467041,11.9065895080566,11.935079574585,11.9374160766602,11.9397535324097,11.9420919418335,11.9444313049316,11.9467706680298,11.9491119384766,11.9514541625977,11.9537973403931,11.9561405181885,11.9584856033325,11.9608306884766,11.9631776809692,11.9655246734619,11.9678735733032,11.9702224731445,11.9725732803345,11.9749240875244,11.9772758483887,11.9796295166016,11.9819831848145,11.9843378067017,11.9866933822632,11.9890508651733,11.9914083480835,11.993766784668,11.9961261749268,11.9984865188599,12.0008478164673,12.003210067749,12.0055732727051,12.0079374313354,12.0103025436401,12.0126686096191,12.0150356292725,12.0174036026001,12.0197725296021,12.022141456604,12.0245122909546,12.0268840789795,12.0292568206787,12.0316305160522,12.0340042114258,12.0363798141479,12.0387563705444,12.0411329269409,12.043511390686,12.0458908081055,12.0482702255249,12.050651550293,12.0530338287354,12.0554161071777,12.0578002929688,12.0601854324341,12.0625705718994,12.0649576187134,12.0673446655273,12.0697336196899,12.0721225738525,12.0745134353638,12.076904296875,12.0792970657349,12.0816898345947,12.0840845108032,12.0864791870117,12.0888757705688,12.091272354126,12.0936708450317,12.0960693359375,12.0984697341919,12.1008701324463,12.1032724380493,12.1056747436523,12.108078956604,12.1104831695557,12.112889289856,12.1152954101562,12.1177034378052,12.1201114654541,12.1225214004517,12.1249313354492,12.1273431777954,12.1297550201416,12.1321687698364,12.1345825195312,12.1369981765747,12.1394147872925,12.1418313980103,12.1442499160767,12.1466684341431,12.1490888595581,12.1515092849731,12.1539316177368,12.1563549041748,12.1587781906128,12.1612033843994,12.1636295318604,12.1660556793213,12.1684837341309,12.1709127426147,12.1733417510986,12.1757726669312,12.178204536438,12.1806373596191,12.1830711364746,12.1855049133301,12.1879405975342,12.1903772354126,12.1928148269653,12.1952533721924,12.1976928710938,12.2025012969971,12.2169647216797,12.231463432312,12.2459955215454,12.2605628967285,12.275164604187,12.2898015975952,12.3044729232788,12.3191795349121,12.3339214324951,12.3486995697021,12.3635120391846,12.3783597946167,12.3932437896729,12.408164024353,12.4231195449829,12.4381113052368,12.4531402587891,12.468204498291,12.483304977417,12.4984426498413,12.513617515564,12.5288286209106,12.5440769195557,12.559362411499,12.5746850967407,12.5900449752808,12.6054430007935,12.6208782196045,12.6363515853882,12.6518630981445
8.28155422210693,8.28182506561279,8.28209686279297,8.28236770629883,8.28263854980469,8.28290939331055,8.28318023681641,8.28345203399658,8.28372287750244,8.2839937210083,8.28426456451416,8.28453636169434,8.2848072052002,8.28507804870605,8.28534984588623,8.28562068939209,8.28589248657227,8.30759716033936,8.33671188354492,8.3660306930542,8.39555644989014,8.42529201507568,8.45523929595947,8.48539924621582,8.51577568054199,8.54637050628662,8.57718563079834,8.6082239151001,8.63948726654053,8.67097854614258,8.7027006149292,8.73465633392334,8.76684665679932,8.79927539825439,8.83194446563721,8.86485767364502,8.89801692962646,8.93142509460449,8.96508502960205,8.99899959564209,9.03317165374756,9.06760406494141,9.1023006439209,9.13726329803467,9.17249584197998,9.20800113677979,9.24378108978271,9.27984046936035,9.31618213653564,9.35280895233154,9.38972568511963,9.42693519592285,9.46444034576416,9.50224494934082,9.54035377502441,9.57876873016357,9.61749362945557,9.65653419494629,9.69589233398438,9.73557281494141,9.77557945251465,9.81591606140137,9.85658645629883,9.89759635925293,11.5470886230469,11.5474672317505,11.5478458404541,11.5482244491577,11.5486030578613,11.5489816665649,11.5493602752686,11.5497388839722,11.5501184463501,11.5504970550537,11.5508756637573,11.5512542724609,11.5516328811646,11.5520124435425,11.5523910522461,11.5527696609497,11.5531492233276,11.5535278320312,11.5539073944092,11.5542860031128,11.5546655654907,11.5550441741943,11.5554237365723,11.5558023452759,11.5561819076538,11.5565605163574,11.5569400787354,11.5573196411133,11.5576982498169,11.5580778121948,11.5584573745728,11.5588369369507,11.5592155456543,11.5595951080322,11.5599746704102,11.6155796051025,11.672700881958,11.7303867340088,11.7886457443237,11.8474855422974,11.9069166183472,11.9306173324585,11.9329519271851,11.9352874755859,11.9376249313354,11.939962387085,11.9422998428345,11.9446392059326,11.9469795227051,11.9493207931519,11.9516630172729,11.9540061950684,11.9563493728638,11.9586944580078,11.9610404968262,11.9633865356445,11.9657344818115,11.9680824279785,11.9704322814941,11.9727821350098,11.975133895874,11.9774856567383,11.9798393249512,11.9821929931641,11.9845476150513,11.9869041442871,11.9892606735229,11.9916181564331,11.9939765930176,11.9963369369507,11.9986972808838,12.0010585784912,12.0034208297729,12.005784034729,12.0081481933594,12.0105133056641,12.0128793716431,12.0152463912964,12.017614364624,12.019983291626,12.0223531723022,12.0247240066528,12.0270957946777,12.029468536377,12.0318422317505,12.034215927124,12.0365915298462,12.0389680862427,12.0413455963135,12.0437240600586,12.0461025238037,12.0484828948975,12.0508642196655,12.0532455444336,12.0556287765503,12.0580129623413,12.0603981018066,12.062783241272,12.0651702880859,12.0675573348999,12.0699462890625,12.0723361968994,12.0747261047363,12.0771179199219,12.0795106887817,12.0819034576416,12.0842981338501,12.0866928100586,12.0890893936157,12.0914869308472,12.0938844680786,12.0962839126587,12.0986833572388,12.1010847091675,12.1034860610962,12.1058893203735,12.1082935333252,12.1106977462769,12.1131038665771,12.1155099868774,12.1179180145264,12.1203269958496,12.1227359771729,12.1251468658447,12.1275577545166,12.1299705505371,12.1323843002319,12.1347980499268,12.1372137069702,12.1396293640137,12.1420469284058,12.1444654464722,12.1468839645386,12.1493043899536,12.151725769043,12.1541481018066,12.1565704345703,12.1589946746826,12.1614198684692,12.1638450622559,12.1662721633911,12.1687002182007,12.1711292266846,12.1735591888428,12.1759901046753,12.1784210205078,12.180853843689,12.1832876205444,12.1857223510742,12.1881580352783,12.1905946731567,12.1930322647095,12.1954708099365,12.1979103088379,12.2003507614136,12.2027921676636,12.2145309448242,12.2290229797363,12.2435503005981,12.258111000061,12.2727069854736,12.2873382568359,12.3020038604736,12.316704750061,12.3314409255981,12.346212387085,12.3610191345215,12.3758611679077,12.390739440918,12.4056529998779,12.4206027984619,12.4355888366699,12.4506101608276,12.4656686782837,12.4807634353638,12.4958953857422,12.5110635757446,12.5262680053711,12.5415105819702,12.5567893981934,12.5721063613892,12.587459564209,12.6028509140015
8.28166770935059,8.28193855285645,8.2822093963623,8.28248023986816,8.28275203704834,8.2830228805542,8.28329372406006,8.28356456756592,8.28383636474609,8.28410720825195,8.28437805175781,8.28464889526367,8.28492069244385,8.28519153594971,8.28546333312988,8.28573417663574,8.2860050201416,8.30775547027588,8.33687114715576,8.36619186401367,8.39571857452393,8.42545509338379,8.45540332794189,8.48556518554688,8.51594257354736,8.54653835296631,8.57735443115234,8.60839366912842,8.63965892791748,8.67115211486816,8.7028751373291,8.73483085632324,8.76702308654785,8.79945278167725,8.83212375640869,8.86503791809082,8.89819812774658,8.93160820007324,8.96526908874512,8.99918556213379,9.03335952758789,9.06779289245605,9.10249137878418,9.13745498657227,9.17268943786621,9.20819568634033,9.24397659301758,9.28003787994385,9.31638145446777,9.3530101776123,9.38992786407471,9.42713928222656,9.46464538574219,9.50245189666748,9.54056167602539,9.57897853851318,9.61770629882812,9.65674781799316,9.69610786437988,9.73579025268555,9.77579784393311,9.81613636016846,9.85680961608887,9.89782047271729,11.5472469329834,11.547625541687,11.5480041503906,11.5483827590942,11.5487613677979,11.5491399765015,11.5495185852051,11.5498971939087,11.5502758026123,11.5506553649902,11.5510339736938,11.5514125823975,11.5517911911011,11.552170753479,11.5525493621826,11.5529279708862,11.5533075332642,11.5536861419678,11.5540657043457,11.5544443130493,11.5548229217529,11.5552024841309,11.5555820465088,11.5559606552124,11.5563402175903,11.5567188262939,11.5570983886719,11.5574779510498,11.5578565597534,11.5582361221313,11.5586156845093,11.5589952468872,11.5593738555908,11.5597534179688,11.5601329803467,11.615891456604,11.6730155944824,11.7307043075562,11.788966178894,11.8478097915649,11.9072437286377,11.9261589050293,11.9284915924072,11.9308261871338,11.9331607818604,11.9354963302612,11.9378328323364,11.9401702880859,11.9425086975098,11.9448480606079,11.9471883773804,11.9495296478271,11.9518718719482,11.9542150497437,11.9565591812134,11.9589033126831,11.9612493515015,11.9635963439941,11.9659433364868,11.9682922363281,11.9706420898438,11.9729919433594,11.9753437042236,11.9776954650879,11.9800491333008,11.9824028015137,11.9847583770752,11.9871139526367,11.9894704818726,11.991828918457,11.9941873550415,11.9965467453003,11.9989070892334,12.0012693405151,12.0036315917969,12.0059947967529,12.0083589553833,12.010724067688,12.013090133667,12.0154571533203,12.0178260803223,12.0201950073242,12.0225648880005,12.0249357223511,12.027307510376,12.0296802520752,12.0320529937744,12.0344276428223,12.0368032455444,12.0391798019409,12.0415573120117,12.0439357757568,12.0463151931763,12.04869556427,12.0510759353638,12.0534582138062,12.0558414459229,12.0582256317139,12.0606107711792,12.0629959106445,12.0653829574585,12.0677709579468,12.0701599121094,12.072548866272,12.0749397277832,12.0773315429688,12.0797233581543,12.0821170806885,12.084511756897,12.0869064331055,12.0893030166626,12.091700553894,12.0940980911255,12.0964975357056,12.09889793396,12.1012983322144,12.1037006378174,12.1061038970947,12.1085071563721,12.110912322998,12.1133184432983,12.1157245635986,12.1181325912476,12.1205415725708,12.122950553894,12.1253614425659,12.1277732849121,12.1301860809326,12.1325988769531,12.1350135803223,12.1374292373657,12.1398448944092,12.1422624588013,12.1446809768677,12.1471004486084,12.1495199203491,12.1519412994385,12.1543636322021,12.1567869186401,12.1592111587524,12.1616353988647,12.1640615463257,12.1664886474609,12.1689167022705,12.1713457107544,12.1737756729126,12.1762065887451,12.178638458252,12.1810712814331,12.1835050582886,12.1859397888184,12.1883754730225,12.1908121109009,12.1932497024536,12.1956882476807,12.198127746582,12.2005681991577,12.2030096054077,12.2054529190063,12.2120971679688,12.2265844345093,12.2411050796509,12.2556610107422,12.2702512741089,12.284875869751,12.2995357513428,12.3142309188843,12.3289604187012,12.3437261581421,12.3585271835327,12.373363494873,12.3882350921631,12.4031429290771,12.4180870056152,12.433066368103,12.4480819702148,12.463134765625,12.4782228469849,12.4933481216431,12.5085105895996,12.5237092971802,12.5389451980591,12.5542182922363
