11.5707864761353,11.5710525512695,11.5713176727295,11.5715837478638,11.5718488693237,11.572114944458,11.5785875320435,11.5984191894531,11.6183185577393,11.6382865905762,11.6583232879639,11.6784296035767,11.6986045837402,11.7188501358032,11.7391653060913,11.7595510482788,11.78000831604,11.8005361557007,11.8211364746094,11.8418083190918,11.8625526428223,11.8833694458008,11.9325408935547,11.9857425689697,12.0394220352173,12.0935840606689,12.1482353210449,12.2033824920654,12.259033203125,12.3151941299438,12.3718709945679,12.4290723800659,12.4868059158325,12.5450773239136,12.6038951873779,12.6632680892944,12.6930284500122,12.7209978103638,12.7490921020508,12.7916984558105,12.8608541488647,12.9307727813721,13.0014562606812,13.0729160308838,13.1451663970947,13.2182197570801,14.6253061294556,14.6448307037354,14.6644058227539,14.6840353012085,14.7037162780762,14.7234497070312,14.743236541748,14.7630777359009,14.7829713821411,14.8029184341431,14.8229198455811,14.8429756164551,14.8630847930908,14.8832492828369,14.903468132019,14.9237422943115,14.9440717697144,14.9644565582275,14.9848976135254,15.0053939819336,15.0259466171265,15.046555519104,15.0672216415405,15.0879440307617,15.1087236404419,15.1295604705811,15.1504545211792,15.1714067459106,15.1924171447754,15.2134857177734,15.2346124649048,15.2557983398438,15.2770433425903,15.2983465194702,15.3197107315063,15.3411340713501,15.3626165390015,15.3841600418091,15.4057645797729,15.4274291992188,15.4491548538208,15.4709424972534,15.4927911758423,15.5147008895874,15.5366735458374,15.5587091445923,15.5808057785034,15.6029663085938,15.625189781189,15.6474761962891,15.6698265075684,15.6922416687012,15.7147197723389,15.7372627258301,15.7598705291748,15.7825441360474,15.8110628128052,15.8546009063721,0,0,0,0,0,0,0,0,0,0,0,0,0,0,0,0,0,0,0,0,0,0,0,0,0,0,0,0,0,0,0,0,0,0,0,0,0,0,0,0,0,0,0,0,0,0,0,0,0,0,0,0,0,0,0,0,0,0,0,0,0,0,0,0,0,0,0,0,0,0,0,0,0,0,0,0,0,0,0,0,0,0,0,0,0,0,0,0,0,0,0,0,0,0,0,0,0,0,0,0,0,0,0,0,0,0,0,0,0,0,0,0,0,0,0,0,0,0,0,0,0,0,0,0,0,0,0,0,0,0,0,0,0,0,0,0,0,0,0,0,0
11.5709381103516,11.5712032318115,11.5714693069458,11.5717344284058,11.57200050354,11.572265625,11.5725317001343,11.58327293396,11.603120803833,11.6230363845825,11.6430206298828,11.6630735397339,11.6831960678101,11.7033882141113,11.7236499786377,11.7439823150635,11.7643842697144,11.7848587036133,11.8054037094116,11.8260202407837,11.8467092514038,11.867470741272,11.8883056640625,11.9231081008911,11.9762268066406,12.0298194885254,12.0838956832886,12.1384592056274,12.1935176849365,12.249077796936,12.3051471710205,12.3617315292358,12.4188394546509,12.4764766693115,12.5346517562866,12.5933723449707,12.652645111084,12.7124786376953,12.7443008422852,12.7926740646362,12.8618516921997,12.9317808151245,13.0024757385254,13.0739469528198,13.1462087631226,13.2192735671997,14.5456123352051,14.5649242401123,14.5842866897583,14.6037015914917,14.6231679916382,14.6426858901978,14.6622562408447,14.6818790435791,14.7015542984009,14.7212829589844,14.7410640716553,14.7608985900879,14.7807865142822,14.8007278442383,14.8207235336304,14.8407726287842,14.860876083374,14.8810348510742,14.9012479782104,14.921516418457,14.9418392181396,14.9622182846069,14.9826526641846,15.0031433105469,15.0236892700195,15.0442924499512,15.0649518966675,15.0856676101685,15.1064405441284,15.1272716522217,15.1481599807739,15.1691055297852,15.1901092529297,15.2111711502075,15.232292175293,15.2534713745117,15.2747097015381,15.2960071563721,15.3173637390137,15.3387804031372,15.3602571487427,15.3817939758301,15.4033918380737,15.4250497817993,15.4467687606812,15.4685497283936,15.4903907775879,15.5122947692871,15.5342607498169,15.5562887191772,15.5783786773682,15.6005325317383,15.6227493286133,15.6450290679932,15.6673717498779,15.6897792816162,15.7122507095337,15.7347869873047,15.7573881149292,15.7800540924072,15.8047351837158,0,0,0,0,0,0,0,0,0,0,0,0,18.3587989807129,18.3519325256348,0,0,0,0,0,0,0,0,0,0,0,0,0,0,0,0,0,0,0,0,0,0,0,0,0,0,0,0,0,0,0,0,0,0,0,0,0,0,0,0,0,0,0,0,0,0,0,0,0,0,0,0,0,0,0,0,0,0,0,0,0,0,0,0,0,0,0,0,0,0,0,0,0,0,0,0,0,0,0,0,0,0,0,0,0,0,0,0,0,0,0,0,0,0,0,0,0,0,0,0,0,0,0,0,0,0,0,0,0,0,0,0,0,0,0,0,0,0,0,0,0,0,0,0
11.5710887908936,11.5713548660278,11.5716199874878,11.5718860626221,11.572151184082,11.5724172592163,11.5726823806763,11.5729484558105,11.587963104248,11.6078262329102,11.627758026123,11.647759437561,11.6678285598755,11.687967300415,11.7081756591797,11.7284536361694,11.7488031387329,11.7692222595215,11.7897129058838,11.8102750778198,11.8309087753296,11.8516149520874,11.8723936080933,11.8932456970215,11.9141702651978,11.9667253494263,12.0202331542969,12.0742225646973,12.128698348999,12.1836681365967,12.2391386032104,12.2951164245605,12.3516092300415,12.4086227416992,12.4661655426025,12.5242671966553,12.5905437469482,12.657525062561,12.7252235412598,12.7936611175537,12.8628492355347,12.9327898025513,13.0034952163696,13.0749778747559,13.1472511291504,13.2203283309937,14.4667825698853,14.4858856201172,14.5050382614136,14.524242401123,14.5434970855713,14.5628032684326,14.582160949707,14.6015691757202,14.6210298538208,14.6405420303345,14.6601066589355,14.679723739624,14.6993932723999,14.7191162109375,14.7388916015625,14.7587203979492,14.7786016464233,14.7985372543335,14.8185272216797,14.8385705947876,14.8586683273315,14.8788204193115,14.8990278244019,14.9192895889282,14.9396076202393,14.9599800109863,14.9804086685181,15.0008926391602,15.0214328765869,15.0420293807983,15.0626821517944,15.0833921432495,15.1041593551636,15.1249837875366,15.1458654403687,15.166805267334,15.1878023147583,15.2088584899902,15.2299718856812,15.251145362854,15.2723770141602,15.2936677932739,15.3150186538696,15.3364286422729,15.3578987121582,15.3794288635254,15.4010200500488,15.4232606887817,15.4456605911255,15.4681262969971,15.4906568527222,15.5132532119751,15.5359153747559,15.5586442947388,15.5814399719238,15.604302406311,15.6272315979004,15.6502285003662,15.6732931137085,15.6964263916016,15.7196273803711,15.7428970336914,15.7662363052368,15.7789182662964,0,0,0,0,0,0,0,0,0,18.3582592010498,18.3514499664307,18.3450469970703,18.3381881713867,0,0,0,0,0,0,0,0,0,0,0,0,0,0,0,0,0,0,0,0,0,0,0,0,0,0,0,0,0,0,0,0,0,0,0,0,0,0,0,0,0,0,0,0,0,0,0,0,0,0,0,0,0,0,0,0,0,0,0,0,0,0,0,0,0,0,0,0,0,0,0,0,0,0,0,0,0,0,0,0,0,0,0,0,0,0,0,0,0,0,0,0,0,0,0,0,0,0,0,0,0,0,0,0,0,0,0,0,0,0,0,0,0,0,0,0,0,0,0,0,0,0
11.5712404251099,11.5715055465698,11.5717716217041,11.5720367431641,11.5723028182983,11.5725679397583,11.5728340148926,11.5730991363525,11.5733652114868,11.5926561355591,11.6125364303589,11.6324844360352,11.6525011062622,11.67258644104,11.6927423477173,11.7129669189453,11.7332620620728,11.7536277770996,11.7740631103516,11.7945709228516,11.8151502609253,11.8358011245728,11.8565244674683,11.8773202896118,11.8981895446777,11.919132232666,11.958625793457,12.0190362930298,12.080060005188,12.1417074203491,12.2039861679077,12.2669076919556,12.3304815292358,12.3947172164917,12.4596261978149,12.525218963623,12.5915050506592,12.6584968566895,12.7262029647827,12.7946481704712,12.8638467788696,12.933798789978,13.0045156478882,13.0760097503662,13.1482934951782,13.2213821411133,14.394380569458,14.4138898849487,14.4334516525269,14.4530668258667,14.4727363586426,14.4924583435059,14.5122346878052,14.5320653915405,14.5519495010376,14.571888923645,14.5918827056885,14.611930847168,14.6320352554321,14.6521940231323,14.6724090576172,14.6926794052124,14.7130069732666,14.7333898544312,14.7538299560547,14.7743263244629,14.7948799133301,14.8154907226562,14.8361587524414,14.8568849563599,14.8776693344116,14.8985109329224,14.9194116592407,14.9403715133667,14.961389541626,14.9824676513672,15.003604888916,15.0248012542725,15.0460586547852,15.0673751831055,15.088752746582,15.1101913452148,15.1316909790039,15.1532516479492,15.1748733520508,15.1965570449829,15.2183036804199,15.2401113510132,15.2619829177856,15.2839164733887,15.3059129714966,15.3279733657837,15.35009765625,15.3722858428955,15.3945379257202,15.4168539047241,15.4392356872559,15.4616823196411,15.4841947555542,15.5067720413208,15.5294151306152,15.5521249771118,15.5749015808105,15.5977449417114,15.6206550598145,15.6436328887939,15.6601114273071,15.6721935272217,15.6842947006226,15.6964139938354,15.7085523605347,15.7207098007202,0,0,0,0,0,0,0,18.3581676483154,18.3495121002197,18.343448638916,18.3381652832031,18.3313140869141,18.4118137359619,0,0,0,0,0,0,0,0,0,0,0,0,0,0,0,0,0,0,0,0,0,0,0,0,0,0,0,0,0,0,0,0,0,0,0,0,0,0,0,0,0,0,0,0,0,0,0,0,0,0,0,0,0,0,0,0,0,0,0,0,0,0,0,0,0,0,0,0,0,0,0,0,0,0,0,0,0,0,0,0,0,0,0,0,0,0,0,0,0,0,0,0,0,0,0,0,0,0,0,0,0,0,0,0,0,0,0,0,0,0,0,0,0,0,0,0,0,0,0,0
11.5713911056519,11.5716571807861,11.5719223022461,11.5721883773804,11.5724534988403,11.5727195739746,11.5729846954346,11.5732507705688,11.5735168457031,11.577525138855,11.5973529815674,11.6172494888306,11.6372137069702,11.6572465896606,11.6773490905762,11.6975202560425,11.7177619934082,11.738073348999,11.7584562301636,11.7789087295532,11.7994337081909,11.8218021392822,11.8456153869629,11.8695249557495,11.8935308456421,11.912896156311,11.9594926834106,12.0199127197266,12.0809450149536,12.1426010131836,12.2048892974854,12.2678203582764,12.3314037322998,12.3956489562988,12.4605674743652,12.5261697769165,12.5924663543701,12.6594667434692,12.7271814346313,12.7956352233887,12.8648452758789,12.9348077774048,13.0055351257324,13.0770406723022,13.1493368148804,13.2224359512329,14.3499689102173,14.3693580627441,14.3887996673584,14.4082937240601,14.4278411865234,14.4474411010742,14.467095375061,14.4868021011353,14.5065622329712,14.5263776779175,14.5462465286255,14.5661697387695,14.5861482620239,14.6061811447144,14.6262693405151,14.646411895752,14.6666107177734,14.6868658065796,14.7071771621704,14.7275438308716,14.7479667663574,14.7684478759766,14.7889842987061,14.8095788955688,14.8302307128906,14.8509407043457,14.8717079162598,14.8925333023071,14.9134168624878,14.9343595504761,14.955361366272,14.9764223098755,14.9975423812866,15.0187215805054,15.0399618148804,15.061261177063,15.0826215744019,15.1040420532227,15.125524520874,15.1470670700073,15.1686716079712,15.1903381347656,15.2120656967163,15.2338562011719,15.2557096481323,15.2776250839233,15.2996044158936,15.3216457366943,15.3437519073486,15.3659210205078,15.3881549835205,15.4104537963867,15.4328165054321,15.4552440643311,15.4777374267578,15.5002965927124,15.5229206085205,15.543080329895,15.5549821853638,15.5669031143188,15.5788412094116,15.5907983779907,15.6027746200562,15.6147680282593,15.6267805099487,15.6388111114502,15.650860786438,15.6629285812378,15.7894496917725,0,0,0,0,18.3580760955811,18.3494205474854,18.3407764434814,18.3354530334473,18.3303909301758,18.32444190979,18.3176002502441,18.5220508575439,0,0,0,0,0,0,0,0,0,0,0,0,0,0,0,0,0,0,0,0,0,0,0,0,0,0,0,0,0,0,0,0,0,0,0,0,0,0,0,0,0,0,0,0,0,0,0,0,0,0,0,0,0,0,0,0,0,0,0,0,0,0,0,0,0,0,0,0,0,0,0,0,0,0,0,0,0,0,0,0,0,0,0,0,0,0,0,0,0,0,0,0,0,0,0,0,0,0,0,0,0,0,0,0,0,0,0,0,0,0,0,0,0,0,0,0,0,0
11.5715417861938,11.5718078613281,11.5720739364624,11.5723390579224,11.5726051330566,11.5728702545166,11.5731363296509,11.5734024047852,11.5736675262451,11.5739336013794,11.5822105407715,11.6020545959473,11.6219663619995,11.6419467926025,11.6619968414307,11.6821155548096,11.7047843933105,11.7281284332275,11.7515649795532,11.7750959396362,11.7987203598022,11.8224411010742,11.8462562561035,11.8701677322388,11.8914623260498,11.9009428024292,11.9603595733643,12.020788192749,12.0818300247192,12.1434946060181,12.205792427063,12.2687330245972,12.3323249816895,12.396580696106,12.4615087509155,12.52712059021,12.5934276580811,12.6604347229004,12.72815990448,12.7966232299805,12.8658428192139,12.9358167648315,13.006555557251,13.0780715942383,13.1503791809082,13.2234907150269,14.3058319091797,14.325101852417,14.3444232940674,14.3637971878052,14.3832235336304,14.4027032852173,14.4222345352173,14.4418201446533,14.4614582061768,14.4811496734619,14.5008955001831,14.520694732666,14.540548324585,14.5604553222656,14.5804176330566,14.600435256958,14.6205072402954,14.6406354904175,14.6608180999756,14.6810569763184,14.7013511657715,14.7217025756836,14.7421092987061,14.7625732421875,14.7830944061279,14.803671836853,14.8243074417114,14.8450002670288,14.8657512664795,14.8865604400635,14.9074277877808,14.9283533096313,14.9493379592896,14.9703817367554,14.9914846420288,15.0126476287842,15.0338697433472,15.0551519393921,15.0764951705933,15.0978984832764,15.1193628311157,15.1408882141113,15.1624755859375,15.1841239929199,15.2058343887329,15.2276067733765,15.2494411468506,15.2713394165039,15.2932996749878,15.3153238296509,15.3374118804932,15.3595628738403,15.3817777633667,15.4040575027466,15.42640209198,15.4395112991333,15.4512548446655,15.4630174636841,15.4747972488403,15.4865951538086,15.4984111785889,15.5102453231812,15.5220975875854,15.5339670181274,15.5458555221558,15.5577621459961,15.5696868896484,15.5816297531128,15.5935916900635,15.6055717468262,15.678391456604,0,0,18.357982635498,18.349328994751,18.3406848907471,18.3325252532959,18.327465057373,18.3224086761475,18.3173522949219,18.3107414245605,18.4223670959473,18.6336154937744,0,0,0,0,0,0,0,0,0,0,0,0,0,0,0,0,0,0,0,0,0,0,0,0,0,0,0,0,0,0,0,0,0,0,0,0,0,0,0,0,0,0,0,0,0,0,0,0,0,0,0,0,0,0,0,0,0,0,0,0,0,0,0,0,0,0,0,0,0,0,0,0,0,0,0,0,0,0,0,0,0,0,0,0,0,0,0,0,0,0,0,0,0,0,0,0,0,0,0,0,0,0,0,0,0,0,0,0,0,0,0,0,0,0,0,0
11.5716934204102,11.5719585418701,11.5722246170044,11.5724906921387,11.5727558135986,11.5730218887329,11.5732870101929,11.5735530853271,11.5738191604614,11.5740842819214,11.5743503570557,11.5900611877441,11.6129484176636,11.6359272003174,11.6589965820312,11.6821575164795,11.7054109573364,11.7287569046021,11.7521953582764,11.7757291793823,11.7993564605713,11.8230791091919,11.8468971252441,11.8701047897339,11.8795509338379,11.9013948440552,11.9612274169922,12.0216646194458,12.0827150344849,12.1443891525269,12.2066955566406,12.2696447372437,12.3332471847534,12.3975124359131,12.4624500274658,12.5280723571777,12.5943851470947,12.6614036560059,12.7291383743286,12.7976102828979,12.8668413162231,12.9368257522583,13.0075759887695,13.0791034698486,13.1514225006104,13.2245454788208,14.2619647979736,14.2811164855957,14.3003196716309,14.3195753097534,14.3388814926147,14.3582410812378,14.3776521682739,14.3971157073975,14.416633605957,14.4362030029297,14.4558258056641,14.4755020141602,14.495231628418,14.5150156021118,14.5348539352417,14.5547456741333,14.5746927261353,14.5946941375732,14.6147508621216,14.634861946106,14.655029296875,14.6752519607544,14.6955308914185,14.7158651351929,14.7362565994263,14.7567043304443,14.7772083282471,14.7977705001831,14.8183889389038,14.8390655517578,14.8597993850708,14.8805923461914,14.901442527771,14.9223518371582,14.9433193206787,14.9643459320068,14.9854316711426,15.0065774917603,15.0277824401855,15.0490484237671,15.0703735351562,15.0917596817017,15.1132068634033,15.1347141265869,15.1562833786011,15.1779146194458,15.1996068954468,15.2213621139526,15.2431793212891,15.2650585174561,15.2870016098022,15.309006690979,15.3257417678833,15.3373136520386,15.3489027023315,15.3605089187622,15.3721332550049,15.3837757110596,15.395435333252,15.407112121582,15.4188070297241,15.4305200576782,15.44225025177,15.4539985656738,15.4657649993896,15.4775485992432,15.489351272583,15.5011711120605,15.5130090713501,15.5248651504517,15.5367403030396,15.5486326217651,15.568883895874,18.3578910827637,18.3492374420166,18.3405933380127,18.3319549560547,18.3245410919189,18.3194847106934,18.314432144165,18.3093814849854,18.3038864135742,18.2970600128174,18.5327301025391,0,0,0,0,0,0,0,0,0,0,0,0,0,0,0,0,0,0,0,0,0,0,0,0,0,0,0,0,0,0,0,0,0,0,0,0,0,0,0,0,0,0,0,0,0,0,0,0,0,0,0,0,0,0,0,0,0,0,0,0,0,0,0,0,0,0,0,0,0,0,0,0,0,0,0,0,0,0,0,0,0,0,0,0,0,0,0,0,0,0,0,0,0,0,0,0,0,0,0,0,0,0,0,0,0,0,0,0,0,0,0,0,0,0,0
11.5718441009521,11.5721101760864,11.5723762512207,11.5726413726807,11.5729074478149,11.5731725692749,11.5734386444092,11.5737047195435,11.5739698410034,11.5742359161377,11.574501991272,11.5906744003296,11.613564491272,11.6365451812744,11.6596174240112,11.6827812194824,11.706036567688,11.7293853759766,11.7528266906738,11.7763624191284,11.7999925613403,11.8237180709839,11.8475389480591,11.8582372665405,11.8676643371582,11.9022541046143,11.9620943069458,12.0225400924683,12.0836000442505,12.1452827453613,12.2075986862183,12.2705583572388,12.3341693878174,12.3984441757202,12.4633922576904,12.5290212631226,12.5953435897827,12.6623725891113,12.7301177978516,12.7985982894897,12.8678398132324,12.9378356933594,13.0085964202881,13.080135345459,13.1524658203125,13.2256002426147,14.2183666229248,14.237401008606,14.2564868927002,14.2756242752075,14.2948122024536,14.3140525817871,14.3333444595337,14.3526887893677,14.3720846176147,14.3915338516235,14.4110355377197,14.4305896759033,14.4501981735229,14.46985912323,14.4895734786987,14.5093412399292,14.52916431427,14.5490407943726,14.5689716339111,14.5889577865601,14.608998298645,14.6290941238403,14.649245262146,14.669451713562,14.6897144317627,14.710033416748,14.7304077148438,14.7508392333984,14.7713279724121,14.7918729782104,14.8124752044678,14.8331356048584,14.853853225708,14.8746280670166,14.8954620361328,14.9163541793823,14.9373054504395,14.9583148956299,14.9793844223022,15.0005121231079,15.0217008590698,15.0429487228394,15.0642566680908,15.0856256484985,15.1070547103882,15.1285457611084,15.1500968933105,15.1717100143433,15.1933851242065,15.2136373519897,15.2250394821167,15.2364597320557,15.2478971481323,15.2593517303467,15.2708225250244,15.2823114395142,15.2938175201416,15.3053417205811,15.3168821334839,15.3284406661987,15.3400163650513,15.3516092300415,15.3632202148438,15.3748483657837,15.3864946365356,15.3981580734253,15.409839630127,15.4215383529663,15.4332551956177,15.4449901580811,15.4567422866821,15.4685125350952,15.4803009033203,15.4921073913574,15.5039319992065,18.3405017852783,18.3318634033203,18.3232345581055,18.3165626525879,18.3115100860596,18.3064613342285,18.3014163970947,18.2963714599609,18.2902145385742,18.4329319000244,18.6444244384766,0,0,0,0,0,0,0,0,0,0,0,0,0,0,0,0,0,0,0,0,0,0,0,0,0,0,0,0,0,0,0,0,0,0,0,0,0,0,0,0,0,0,0,0,0,0,0,0,0,0,0,0,0,0,0,0,0,0,0,0,0,0,0,0,0,0,0,0,0,0,0,0,0,0,0,0,0,0,0,0,0,0,0,0,0,0,0,0,0,0,0,0,0,0,0,0,0,0,0,0,0,0,0,0,0,0,0,0,0,0,0,0,0
11.5719957351685,11.5722608566284,11.5725269317627,11.572793006897,11.5730581283569,11.5733242034912,11.5735893249512,11.5738554000854,11.5741214752197,11.5743865966797,11.574652671814,11.5912885665894,11.6141805648804,11.6371641159058,11.6602382659912,11.683403968811,11.7066621780396,11.7300138473511,11.7534580230713,11.7769956588745,11.8006286621094,11.8243570327759,11.8369989395142,11.8463926315308,11.8558015823364,11.903112411499,11.9629621505737,12.023416519165,12.0844850540161,12.1461772918701,12.2085027694702,12.2714710235596,12.3350915908813,12.3993759155273,12.4643325805664,12.5299701690674,12.5963020324707,12.6633405685425,12.7310972213745,12.7995862960815,12.868839263916,12.9388446807861,13.0096168518066,13.0811672210693,13.1535091400146,13.2266550064087,14.1750335693359,14.1939525604248,14.2129211425781,14.2319421768188,14.251012802124,14.2701358795166,14.2893095016479,14.3085346221924,14.3278112411499,14.3471412658691,14.3665218353271,14.3859558105469,14.405442237854,14.4249820709229,14.4445743560791,14.4642200469971,14.4839191436768,14.5036716461182,14.5234785079956,14.5433397293091,14.5632553100586,14.5832252502441,14.60325050354,14.623330116272,14.6434659957886,14.6636562347412,14.6839027404785,14.7042055130005,14.7245645523071,14.7449798583984,14.7654514312744,14.7859802246094,14.8065662384033,14.8272094726562,14.8479108810425,14.8686695098877,14.8894863128662,14.9103622436523,14.9312963485718,14.9522895812988,14.9733409881592,14.9944524765015,15.0156230926514,15.0368547439575,15.0581455230713,15.079496383667,15.1009092330933,15.1143980026245,15.1256523132324,15.136923789978,15.1482124328613,15.159517288208,15.1708393096924,15.1821775436401,15.1935338973999,15.204906463623,15.2162961959839,15.2277030944824,15.2391271591187,15.2505683898926,15.2620267868042,15.2735023498535,15.2849950790405,15.2965049743652,15.308032989502,15.3195781707764,15.3311405181885,15.3427200317383,15.3543176651001,15.3659324645996,15.3775644302368,15.389214515686,15.4008827209473,15.4125680923462,15.4242706298828,15.4359922409058,15.4477310180664,15.7745504379272,18.3145217895508,18.3085899353027,18.3035430908203,18.2984981536865,18.29345703125,18.2884178161621,18.283374786377,18.2765636444092,18.5434226989746,0,0,0,0,0,0,0,0,0,0,0,0,0,0,0,0,0,0,0,0,0,0,0,0,0,0,0,0,0,0,0,15.2541952133179,15.2087850570679,15.2068777084351,15.2138423919678,15.2208127975464,0,16.9350547790527,0,0,0,0,0,0,0,0,0,0,0,0,0,0,0,0,0,0,0,0,0,0,0,0,0,0,0,0,0,0,0,0,0,0,0,0,0,0,0,0,0,0,0,0,0,0,0,0,0,0,0,0,0,0,0,0,0,0,0,0,0,0,0,0,0,0,0,0,0,0,0,0,0,0
11.5721464157104,11.5724124908447,11.572678565979,11.572943687439,11.5732097625732,11.5734748840332,11.5737409591675,11.5740070343018,11.5742721557617,11.574538230896,11.5748043060303,11.5919017791748,11.6147975921631,11.6377830505371,11.6608591079712,11.684027671814,11.7072887420654,11.7306423187256,11.7540893554688,11.7776298522949,11.8012647628784,11.8158369064331,11.8251972198486,11.8345718383789,11.8447093963623,11.9039716720581,11.9638299942017,12.0242929458618,12.0853710174561,12.1470718383789,12.2094058990479,12.2723836898804,12.3360137939453,12.4003076553345,12.4652709960938,12.5309181213379,12.597261428833,12.6643095016479,12.7320756912231,12.8005743026733,12.8698377609253,12.9398546218872,13.0106372833252,13.0821990966797,13.1545524597168,14.1132097244263,14.1319637298584,14.150767326355,14.1696214675903,14.1885261535645,14.2074813842773,14.226487159729,14.2455434799194,14.2646512985229,14.2838096618652,14.3030204772949,14.3222827911377,14.3415975570679,14.3609638214111,14.3803825378418,14.3998537063599,14.4193773269653,14.4389543533325,14.4585857391357,14.4782686233521,14.4980068206787,14.5177984237671,14.5376434326172,14.5575437545776,14.5774974822998,14.5975065231323,14.6175708770752,14.6376905441284,14.657865524292,14.6780958175659,14.6983823776245,14.7187252044678,14.7391242980957,14.7595796585083,14.7800922393799,14.8006620407104,14.8212890625,14.8419733047485,14.8627157211304,14.8835163116455,14.9043750762939,14.9252920150757,14.946268081665,14.967303276062,14.9883975982666,15.005352973938,15.0164451599121,15.0275545120239,15.0386800765991,15.0498218536377,15.060980796814,15.0721559524536,15.0833473205566,15.0945558547974,15.1057815551758,15.1170225143433,15.1282815933228,15.1395568847656,15.1508483886719,15.1621580123901,15.1734838485718,15.1848258972168,15.1961860656738,15.2075624465942,15.2189569473267,15.2303676605225,15.241795539856,15.2532405853271,15.264702796936,15.2761831283569,15.2876796722412,15.2991933822632,15.3107252120972,15.3222742080688,15.3338413238525,15.3454246520996,15.3570261001587,15.3686447143555,15.3802814483643,15.3919363021851,15.6637001037598,18.3006248474121,18.2955837249756,18.2905426025391,18.2855052947998,18.2804718017578,18.2754402160645,18.2697334289551,18.443510055542,18.6552467346191,0,0,0,0,0,0,0,0,0,0,0,0,0,0,0,0,0,0,0,0,0,0,0,0,0,15.2663812637329,15.221830368042,15.201566696167,15.2085266113281,15.2154922485352,15.2224645614624,15.2294435501099,15.2364282608032,15.2434196472168,15.2504177093506,16.8876132965088,16.8752765655518,0,0,0,0,0,0,0,0,0,0,0,0,0,0,0,0,0,0,0,0,0,0,0,0,0,0,0,0,0,0,0,0,0,0,0,0,0,0,0,0,0,0,0,0,0,0,0,0,0,0,0,0,0,0,0,0,0,0,0,0,0,0,0,0,0,0,0,0,0,0,0,0,0
11.5722980499268,11.5725631713867,11.572829246521,11.5730953216553,11.5733604431152,11.5736265182495,11.5738916397095,11.5741577148438,11.574423789978,11.574688911438,11.5749549865723,11.5925159454346,11.6154136657715,11.6384010314941,11.6614809036255,11.6846513748169,11.707914352417,11.7312707901001,11.7547197341919,11.778263092041,11.794750213623,11.8040771484375,11.8134183883667,11.822774887085,11.8455600738525,11.9048309326172,11.9646978378296,12.0251693725586,12.0862560272217,12.1479663848877,12.2103099822998,12.2732963562012,12.3369369506836,12.401237487793,12.4662103652954,12.5318670272827,12.598219871521,12.6652784347534,12.7330551147461,12.8015623092651,12.8708362579346,12.9408645629883,13.0116586685181,13.0832319259644,13.1555957794189,14.0705146789551,14.0891551971436,14.1078453063965,14.1265850067139,14.1453742980957,14.1642141342163,14.1831045150757,14.2020444869995,14.2210359573364,14.2400779724121,14.2591705322266,14.2783155441284,14.297511100769,14.3167581558228,14.3360576629639,14.3554086685181,14.374813079834,14.394268989563,14.4137783050537,14.4333400726318,14.4529552459717,14.4726238250732,14.4923458099365,14.5121212005615,14.5319519042969,14.5518360137939,14.5717744827271,14.5917682647705,14.61181640625,14.6319198608398,14.6520795822144,14.6722936630249,14.6925640106201,14.712890625,14.7332735061646,14.7537126541138,14.774209022522,14.7947626113892,14.815372467041,14.8360404968262,14.8567667007446,14.8775501251221,14.8978691101074,14.9088039398193,14.9197540283203,14.9307203292847,14.9417028427124,14.9527025222778,14.9637174606323,14.9747486114502,14.9857959747314,14.9968595504761,15.0079402923584,15.0190362930298,15.0301494598389,15.0412788391113,15.0524244308472,15.0635871887207,15.0747661590576,15.0859613418579,15.0971736907959,15.1084032058716,15.1196489334106,15.1309108734131,15.1421899795532,15.1534862518311,15.1647987365723,15.1761293411255,15.1874752044678,15.1988391876221,15.2102203369141,15.2216176986694,15.2330322265625,15.2444648742676,15.255913734436,15.2673807144165,15.2788639068604,15.2903652191162,15.3018836975098,15.313419342041,15.32497215271,15.3365421295166,15.5543975830078,18.2876300811768,18.2825946807861,18.2775611877441,18.2725315093994,18.2675037384033,18.2624797821045,18.2561130523682,18.554126739502,0,0,0,0,0,0,0,0,0,0,0,0,0,0,0,0,0,0,0,0,15.27858543396,15.2348976135254,15.1962594985962,15.2032146453857,15.2101755142212,15.2171430587769,15.2241163253784,15.2310962677002,15.2380828857422,15.2450761795044,15.2520751953125,15.2590818405151,15.2660932540894,15.2731122970581,15.2801370620728,16.8281688690186,16.8159198760986,0,0,0,0,0,0,0,0,0,0,0,0,0,0,0,0,0,0,0,0,0,0,0,0,0,0,0,0,0,0,0,0,0,0,0,0,0,0,0,0,0,0,0,0,0,0,0,0,0,0,0,0,0,0,0,0,0,0,0,0,0,0,0,0,0,0,0,0,0,0,0,0
11.5724487304688,11.572714805603,11.5729808807373,11.5732460021973,11.5735120773315,11.5737771987915,11.5740432739258,11.5743093490601,11.57457447052,11.5748405456543,11.5751066207886,11.5931301116943,11.6160297393799,11.6390199661255,11.6621017456055,11.6852750778198,11.7085409164429,11.7318992614746,11.7553510665894,11.773738861084,11.7830324172974,11.7923402786255,11.8016633987427,11.8110008239746,11.8464107513428,11.9056901931763,11.9655656814575,12.0260457992554,12.0871419906616,12.1488609313965,12.2112140655518,12.2742099761963,12.3378572463989,12.4021663665771,12.4671487808228,12.5328159332275,12.5991792678833,12.6662483215332,12.7340354919434,12.8025512695312,12.8718357086182,12.9418745040894,13.0126800537109,13.0842638015747,13.1566400527954,14.0280771255493,14.0466051101685,14.0651826858521,14.0838088989258,14.102484703064,14.1212100982666,14.139986038208,14.1588115692139,14.1776866912842,14.1966123580933,14.2155895233154,14.2346162796021,14.2536945343018,14.2728242874146,14.2920055389404,14.3112382888794,14.3305225372314,14.3498592376709,14.3692474365234,14.3886890411377,14.4081830978394,14.4277296066284,14.4473295211792,14.4669828414917,14.4866895675659,14.5064496994019,14.5262641906738,14.5461330413818,14.5660562515259,14.586033821106,14.6060667037964,14.6261539459229,14.646297454834,14.6664962768555,14.6867504119873,14.7070608139038,14.727427482605,14.7478504180908,14.7683305740356,14.7888669967651,14.8026943206787,14.8134899139404,14.8243007659912,14.8351268768311,14.8459692001343,14.8568277359009,14.8677015304565,14.8785915374756,14.889497756958,14.9004192352295,14.9113578796387,14.9223117828369,14.9332818984985,14.9442682266235,14.9552707672119,14.9662895202637,14.9773244857788,14.9883756637573,14.9994440078735,15.0105276107788,15.0216283798218,15.0327444076538,15.0438776016235,15.055027961731,15.0661945343018,15.0773773193359,15.0885763168335,15.0997924804688,15.1110258102417,15.122275352478,15.1335411071777,15.1448249816895,15.1561241149902,15.167441368103,15.1787748336792,15.1901254653931,15.2014932632446,15.2128782272339,15.2242803573608,15.2356986999512,15.2471351623535,15.2585878372192,15.270058631897,15.2815465927124,15.4466094970703,15.8718957901001,18.2696228027344,18.2645969390869,18.2595748901367,18.2545547485352,18.2493000030518,18.4540996551514,18.6660804748535,0,0,0,0,0,0,0,0,0,0,0,0,0,0,0,15.2479877471924,15.2085409164429,15.1979064941406,15.2048625946045,15.2118244171143,15.2187938690186,15.2257690429688,15.2327508926392,15.2397384643555,15.246732711792,15.2537336349487,15.2607412338257,15.2677545547485,15.2747755050659,15.2818021774292,15.2888355255127,15.2958745956421,15.3029203414917,15.3099737167358,16.7691440582275,16.8786277770996,0,0,0,0,0,0,0,0,0,0,0,0,0,0,0,0,0,0,0,0,0,0,0,0,0,0,0,0,0,0,0,0,0,0,0,0,0,0,0,0,0,0,0,0,0,0,0,0,0,0,0,0,0,0,0,0,0,0,0,0,0,0,0,0,0,0,0,0,0,0,0
11.5726003646851,11.572865486145,11.5731315612793,11.5733976364136,11.5736627578735,11.5739288330078,11.5741949081421,11.5744600296021,11.5747261047363,11.5749921798706,11.5752573013306,11.5937442779541,11.6166458129883,11.6396389007568,11.6627235412598,11.6858987808228,11.7091674804688,11.7325286865234,11.7528018951416,11.7620620727539,11.7713375091553,11.7806272506714,11.7899312973022,11.7992506027222,11.847261428833,11.9065494537354,11.9664335250854,12.0269231796265,12.0880270004272,12.1497554779053,12.2121181488037,12.2751226425171,12.3387775421143,12.4030952453613,12.4680881500244,12.5337648391724,12.6001377105713,12.6672172546387,12.7350149154663,12.803542137146,12.8728351593018,12.9428844451904,13.0137014389038,13.0852966308594,13.1576843261719,13.985894203186,14.0043106079102,14.0227766036987,14.0412912368774,14.0598545074463,14.0784664154053,14.097128868103,14.1158399581909,14.1346015930176,14.1534118652344,14.1722736358643,14.1911849975586,14.2101469039917,14.2291593551636,14.2482233047485,14.2673377990723,14.2865037918091,14.3057222366333,14.3249912261963,14.344313621521,14.3636865615845,14.3831129074097,14.4025917053223,14.4221239089966,14.441707611084,14.4613456726074,14.4810371398926,14.5007820129395,14.5205812454224,14.5404348373413,14.560341835022,14.580304145813,14.60032081604,14.6203927993774,14.6405200958252,14.6607027053833,14.6809406280518,14.6980848312378,14.7087278366089,14.719386100769,14.7300596237183,14.7407493591309,14.7514543533325,14.7621746063232,14.772910118103,14.7836618423462,14.7944288253784,14.805212020874,14.8160104751587,14.8268251419067,14.8376550674438,14.8485012054443,14.8593635559082,14.8702411651611,14.8811349868774,14.8920450210571,14.9029703140259,14.9139127731323,14.9248704910278,14.9358444213867,14.946834564209,14.9578409194946,14.9688634872437,14.9799022674561,14.9909572601318,15.002028465271,15.0131168365479,15.0242204666138,15.0353412628174,15.0464782714844,15.0576324462891,15.0688018798828,15.0799894332886,15.0911922454834,15.1024122238159,15.1136493682861,15.1249027252197,15.136173248291,15.1474599838257,15.158763885498,15.1700849533081,15.1814222335815,15.1927766799927,15.2041482925415,15.215537071228,15.2269430160522,15.3403053283691,15.7596788406372,18.2566719055176,18.251651763916,18.2466373443604,18.2416229248047,18.235710144043,18.5648441314697,0,0,0,0,0,0,0,0,0,0,0,0,15.1926012039185,15.1995525360107,15.2065105438232,15.2134742736816,15.2204446792603,15.2274217605591,15.2344045639038,15.2413940429688,15.2483901977539,15.255392074585,15.2624015808105,15.269416809082,15.2764387130737,15.2834663391113,15.2905015945435,15.2975425720215,15.3045902252197,15.3116445541382,15.3187046051025,15.3257722854614,15.3328456878662,15.3399257659912,16.7105293273926,16.9821758270264,0,0,0,0,0,0,0,0,0,0,0,0,0,0,0,0,0,0,0,0,0,0,0,0,0,0,0,0,0,0,0,0,0,0,0,0,0,0,0,0,0,0,0,0,0,0,0,0,0,0,0,0,0,0,0,0,0,0,0,0,0,0,0,0,0,0,0,0,0,0
11.5727510452271,11.5730171203613,11.5732831954956,11.5735483169556,11.5738143920898,11.5740795135498,11.5743455886841,11.5746116638184,11.5748767852783,11.5751428604126,11.5754089355469,11.5943584442139,11.617262840271,11.6402578353882,11.6633443832397,11.6865234375,11.7097940444946,11.7319393157959,11.7411670684814,11.7504091262817,11.7596664428711,11.7689371109009,11.7782230377197,11.7894039154053,11.8481121063232,11.9074087142944,11.9673013687134,12.0277996063232,12.0889129638672,12.1506509780884,12.2130222320557,12.2760334014893,12.3396968841553,12.4040250778198,12.4690275192261,12.5347146987915,12.6010971069336,12.6681871414185,12.7359943389893,12.8045320510864,12.8738346099854,12.9438953399658,13.0147228240967,13.086329460144,13.1587285995483,13.9439649581909,13.9622716903687,13.9806261062622,13.9990291595459,14.0174808502197,14.0359811782837,14.0545301437378,14.0731287002563,14.0917768478394,14.1104736328125,14.1292200088501,14.1480169296265,14.1668634414673,14.1857604980469,14.2047080993652,14.2237062454224,14.2427558898926,14.2618560791016,14.2810077667236,14.3002099990845,14.3194646835327,14.3387718200684,14.3581304550171,14.3775415420532,14.3970050811768,14.416522026062,14.4360914230347,14.4557132720947,14.4753894805908,14.4951190948486,14.5149030685425,14.534740447998,14.5546321868896,14.5745792388916,14.5945796966553,14.6054372787476,14.6159467697144,14.6264705657959,14.6370105743408,14.6475648880005,14.6581344604492,14.6687202453613,14.6793203353882,14.6899356842041,14.7005672454834,14.7112140655518,14.7218751907349,14.7325525283813,14.7432460784912,14.7539539337158,14.7646780014038,14.7754182815552,14.7861728668213,14.7969436645508,14.8077306747437,14.8185329437256,14.8293514251709,14.8401851654053,14.851035118103,14.8619003295898,14.87278175354,14.8836793899536,14.8945932388306,14.9055223464966,14.916467666626,14.9274301528931,14.9384078979492,14.9494009017944,14.9604110717773,14.9714374542236,14.9824800491333,14.9935398101807,15.0046148300171,15.0157060623169,15.0268144607544,15.0379390716553,15.0490798950195,15.0602369308472,15.0714111328125,15.0826015472412,15.0938091278076,15.1050329208374,15.1162738800049,15.1275310516357,15.1388053894043,15.1500959396362,15.1614036560059,15.1727285385132,15.2354545593262,15.649037361145,18.2437381744385,18.2387256622314,18.2337169647217,18.2287101745605,18.4647006988525,18.6769275665283,0,0,0,0,0,0,0,0,0,0,0,15.2220964431763,15.2290744781494,15.2360591888428,15.243049621582,15.2500476837158,15.2570514678955,15.2640619277954,15.2710790634155,15.2781019210815,15.2851314544678,15.2921676635742,15.2992105484009,15.3062601089478,15.3133153915405,15.3203773498535,15.327446937561,15.3345212936401,15.3416032791138,15.3486919403076,15.3557863235474,15.3628883361816,15.3699960708618,16.6523246765137,17.179615020752,0,0,0,0,0,0,0,0,0,0,0,0,0,0,0,0,0,0,0,0,0,0,0,0,0,0,0,0,0,0,0,0,0,0,0,0,0,0,0,0,0,0,0,0,0,0,0,0,0,0,0,0,0,0,0,0,0,0,0,0,0,0,0,0,0,0,0,0,0
11.5729026794434,11.5731678009033,11.5734338760376,11.5736999511719,11.5739650726318,11.5742311477661,11.5744972229004,11.5747623443604,11.5750284194946,11.5752944946289,11.5755596160889,11.5949726104736,11.6178789138794,11.6408767700195,11.663966178894,11.6871471405029,11.7104206085205,11.7203454971313,11.7295551300049,11.7387790679932,11.7480173110962,11.7572708129883,11.7665386199951,11.7902460098267,11.8489627838135,11.9082679748535,11.9681701660156,12.0286769866943,12.0897989273071,12.1515455245972,12.2139234542847,12.2769432067871,12.3406171798706,12.4049549102783,12.4699668884277,12.5356636047363,12.6020565032959,12.6691560745239,12.7369747161865,12.8055229187012,12.8748340606689,12.9449052810669,13.0157442092896,13.0873622894287,13.1597728729248,13.9022855758667,13.920482635498,13.9387283325195,13.9570207595825,13.9753618240356,13.9937515258789,14.012188911438,14.0306758880615,14.0492105484009,14.0677947998047,14.0864286422729,14.1051111221313,14.1238441467285,14.1426258087158,14.1614589691162,14.1803407669067,14.1992740631104,14.2182579040527,14.2372922897339,14.2563781738281,14.2755146026611,14.2947025299072,14.3139429092407,14.3332347869873,14.352578163147,14.371973991394,14.3914232254028,14.4109239578247,14.4304780960083,14.4500856399536,14.4697465896606,14.4894609451294,14.5035877227783,14.5139503479004,14.5243282318115,14.5347213745117,14.5451288223267,14.5555515289307,14.5659885406494,14.5764408111572,14.5869083404541,14.59739112854,14.6078882217407,14.6184015274048,14.6289291381836,14.6394720077515,14.6500301361084,14.6606035232544,14.6711921691895,14.6817960739136,14.6924152374268,14.703049659729,14.7137002944946,14.724365234375,14.7350463867188,14.7457437515259,14.7564554214478,14.767183303833,14.7779264450073,14.7886848449707,14.7994594573975,14.8102502822876,14.8210563659668,14.8318777084351,14.8427152633667,14.8535690307617,14.8644380569458,14.8753232955933,14.8862247467041,14.897141456604,14.9080753326416,14.9190244674683,14.9299898147583,14.9409713745117,14.9519691467285,14.9629831314087,14.9740133285522,14.9850597381592,14.9961223602295,15.0072011947632,15.0182971954346,15.029408454895,15.0405368804932,15.0516815185547,15.0628433227539,15.0740213394165,15.0852155685425,15.0964269638062,15.1076545715332,15.1188993453979,15.1320276260376,15.5399379730225,18.2308216094971,18.2258167266846,18.2208156585693,18.2153511047363,18.5755729675293,0,0,0,0,0,0,0,0,0,0,15.2447080612183,15.2517051696777,15.2587108612061,15.2657232284546,15.272741317749,15.2797660827637,15.2867975234985,15.2938346862793,15.3008794784546,15.3079299926758,15.3149871826172,15.3220510482788,15.3291215896606,15.3361978530884,15.3432817459106,15.3503713607788,15.3574676513672,15.3645706176758,15.3716802597046,15.3787965774536,15.3859186172485,15.393048286438,15.4001846313477,16.5945243835449,0,0,0,0,0,0,0,0,0,0,0,0,0,0,0,0,0,0,0,0,0,0,0,0,0,0,0,0,0,0,0,0,0,0,0,0,0,0,0,0,0,0,0,0,0,0,0,0,0,0,0,0,0,0,0,0,0,0,0,0,0,0,0,0,0,0,0,0,0
11.5730533599854,11.5733194351196,11.5735855102539,11.5738506317139,11.5741167068481,11.5743827819824,11.5746479034424,11.5749139785767,11.5751800537109,11.5754451751709,11.5757112503052,11.5955867767334,11.6184959411621,11.6414966583252,11.6645879745483,11.6877708435059,11.6995983123779,11.7087755203247,11.7179660797119,11.7271718978882,11.7363920211792,11.7456274032593,11.7548761367798,11.7910890579224,11.849814414978,11.9091281890869,11.9690380096436,12.0295543670654,12.0906848907471,12.1524391174316,12.2148246765137,12.2778539657593,12.3415374755859,12.4058847427368,12.4709062576294,12.5366134643555,12.6030158996582,12.6701259613037,12.7379550933838,12.8065137863159,12.8758344650269,12.9459161758423,13.0167655944824,13.0883951187134,13.1608171463013,13.8608551025391,13.8789443969727,13.8970804214478,13.9152641296387,13.9334955215454,13.951774597168,13.9701013565063,13.9884767532349,14.0069007873535,14.0253734588623,14.0438947677612,14.0624647140503,14.0810842514038,14.0997533798218,14.1184711456299,14.1372394561768,14.1560573577881,14.1749258041382,14.1938438415527,14.2128133773804,14.2318334579468,14.250904083252,14.2700262069702,14.2891998291016,14.308424949646,14.3277015686035,14.3470306396484,14.3664112091064,14.3858451843262,14.403148651123,14.4133682250977,14.4236030578613,14.4338521957397,14.4441156387329,14.4543933868408,14.4646863937378,14.4749937057495,14.4853162765503,14.4956531524658,14.5060043334961,14.5163707733154,14.5267524719238,14.537148475647,14.5475597381592,14.5579853057861,14.5684261322021,14.5788822174072,14.5893535614014,14.5998392105103,14.6103401184082,14.6208562850952,14.6313877105713,14.6419343948364,14.6524963378906,14.6630725860596,14.6736650466919,14.6842727661133,14.6948957443237,14.7055339813232,14.7161874771118,14.7268571853638,14.7375411987305,14.7482414245605,14.7589569091797,14.7696886062622,14.7804355621338,14.7911977767944,14.8019762039185,14.8127698898315,14.823579788208,14.8344049453735,14.8452463150024,14.8561038970947,14.8669767379761,14.8778657913208,14.8887710571289,14.8996915817261,14.9106292724609,14.9215822219849,14.9325513839722,14.9435367584229,14.9545373916626,14.96555519104,14.9765892028809,14.9876394271851,14.9987058639526,15.0097894668579,15.0208883285522,15.0320043563843,15.0431365966797,15.0542850494385,15.0654497146606,15.0766315460205,15.4323501586914,15.856840133667,18.212926864624,18.2079334259033,18.201810836792,18.7323398590088,0,0,0,0,0,0,0,0,0,15.2744073867798,15.2814302444458,15.288462638855,15.2955026626587,15.3025484085083,15.3096008300781,15.3166589736938,15.3237247467041,15.3307962417603,15.3378744125366,15.3449592590332,15.35205078125,15.359148979187,15.3662538528442,15.3733644485474,15.380482673645,15.3876066207886,15.3947372436523,15.4018745422363,15.4090194702148,15.4161701202393,15.4233274459839,15.4304914474487,16.5371227264404,0,0,0,0,0,0,0,0,0,0,0,0,0,0,0,0,0,0,0,0,0,0,0,0,0,0,0,0,0,0,0,0,0,0,0,0,0,0,0,0,0,0,0,0,0,0,0,0,0,0,0,0,0,0,0,0,0,0,0,0,0,0,0,0,0,0,0,0
11.5732049942017,11.5734701156616,11.5737361907959,11.5740022659302,11.5742673873901,11.5745334625244,11.5747995376587,11.5750646591187,11.5753307342529,11.5755968093872,11.5758628845215,11.5962009429932,11.6191129684448,11.6421155929565,11.6652097702026,11.6789245605469,11.6880683898926,11.6972274780273,11.7064008712769,11.7155885696411,11.7247896194458,11.7340068817139,11.7432374954224,11.7919321060181,11.8506660461426,11.909987449646,11.9699068069458,12.0304317474365,12.091570854187,12.1533317565918,12.2157258987427,12.2787647247314,12.3424577713013,12.4068145751953,12.4718456268311,12.5375623703003,12.6039762496948,12.6710958480835,12.7389354705811,12.8075046539307,12.8768339157104,12.9469270706177,13.0177879333496,13.089427947998,13.1618614196777,13.8196706771851,13.8376522064209,13.8556804656982,13.8737564086914,13.8918790817261,13.9100484848022,13.9282665252686,13.9465322494507,13.9648456573486,13.9832077026367,14.0016174316406,14.0200757980347,14.0385828018188,14.0571393966675,14.0757446289062,14.0943984985352,14.1131029129028,14.131856918335,14.1506605148315,14.1695146560669,14.1884183883667,14.2073726654053,14.2263784408569,14.2454347610474,14.2645416259766,14.2837009429932,14.3029108047485,14.3141708374023,14.3242645263672,14.3343725204468,14.3444957733154,14.3546323776245,14.3647832870483,14.3749485015869,14.3851289749146,14.3953227996826,14.4055318832397,14.4157552719116,14.4259929656982,14.4362459182739,14.44651222229,14.4567937850952,14.4670906066895,14.4774007797241,14.4877271652222,14.4980669021606,14.5084218978882,14.5187921524048,14.5291767120361,14.5395765304565,14.549991607666,14.5604209899902,14.5708646774292,14.5813245773315,14.5917987823486,14.6022882461548,14.61279296875,14.6233129501343,14.6338472366333,14.6443977355957,14.6549625396729,14.6655435562134,14.6761388778687,14.6867504119873,14.6973762512207,14.7080183029175,14.7186756134033,14.7293491363525,14.7400369644165,14.7507410049438,14.7614603042603,14.7721948623657,14.7829456329346,14.7937116622925,14.8044939041138,14.8152914047241,14.8261051177979,14.8369340896606,14.8477792739868,14.8586397171021,14.8695163726807,14.8804092407227,14.891318321228,14.9022426605225,14.9131832122803,14.9241399765015,14.935112953186,14.946102142334,14.9571075439453,14.96812915802,14.9791669845581,14.9902210235596,15.0012912750244,15.0123777389526,15.0234804153442,15.3262414932251,15.7448348999023,18.2000560760498,18.1950378417969,18.5863151550293,0,0,0,0,0,0,0,0,0,15.3042221069336,15.3112726211548,15.3183317184448,15.3253984451294,15.3324718475342,15.3395519256592,15.3466377258301,15.3537311553955,15.3608303070068,15.3679370880127,15.3750495910645,15.3821687698364,15.3892946243286,15.396427154541,15.4035663604736,15.4107112884521,15.4178638458252,15.4250230789185,15.4321889877319,15.4393606185913,15.4465398788452,15.4537258148193,15.4609174728394,16.4914665222168,0,0,0,0,0,0,0,0,0,0,0,0,0,0,0,0,0,0,0,0,0,0,0,0,0,0,0,0,0,0,0,0,0,0,0,0,0,0,0,0,0,0,0,0,0,0,0,0,0,0,0,0,0,0,0,0,0,0,0,0,0,0,0,0,0,0,0
11.5733556747437,11.5736217498779,11.5738878250122,11.5741529464722,11.5744190216064,11.5746850967407,11.5749502182007,11.575216293335,11.5754823684692,11.5757474899292,11.5760135650635,11.5968151092529,11.6197290420532,11.6427345275879,11.6583232879639,11.6674356460571,11.6765613555908,11.6857023239136,11.6948575973511,11.7040271759033,11.7132110595703,11.7224092483521,11.7346115112305,11.7927751541138,11.8515167236328,11.9108476638794,11.970775604248,12.0313091278076,12.0924549102783,12.154224395752,12.216628074646,12.2796754837036,12.3433780670166,12.4077444076538,12.472785949707,12.5385122299194,12.6049356460571,12.6720666885376,12.7399158477783,12.8084955215454,12.8778343200684,12.9479379653931,13.0188102722168,13.090461730957,13.1629066467285,13.7787303924561,13.7966051101685,13.8145275115967,13.8324956893921,13.850510597229,13.8685722351074,13.8866815567017,13.9048376083374,13.9230422973633,13.9412937164307,13.9595937728882,13.9779405593872,13.9963369369507,14.0147819519043,14.0332746505737,14.0518169403076,14.0704078674316,14.0890483856201,14.107738494873,14.1264781951904,14.1452674865723,14.1641073226929,14.1829967498779,14.2019367218018,14.2163286209106,14.2262859344482,14.236255645752,14.2462406158447,14.2562389373779,14.2662515640259,14.2762775421143,14.2863187789917,14.2963733673096,14.3064422607422,14.3165245056152,14.3266220092773,14.3367338180542,14.3468599319458,14.3569993972778,14.3671541213989,14.3773231506348,14.3875064849854,14.3977041244507,14.4079160690308,14.4181432723999,14.4283838272095,14.4386396408081,14.4489107131958,14.4591951370239,14.4694948196411,14.4798097610474,14.490138053894,14.5004825592041,14.5108404159546,14.5212144851685,14.5316028594971,14.5420055389404,14.5524234771729,14.5628566741943,14.5733041763306,14.5837669372559,14.5942449569702,14.6047382354736,14.6152467727661,14.6257696151733,14.6363077163696,14.6468620300293,14.6574306488037,14.6680145263672,14.6786136627197,14.6892290115356,14.6998586654663,14.710503578186,14.7211647033691,14.7318410873413,14.7425336837769,14.7532405853271,14.7639636993408,14.7747020721436,14.7854566574097,14.7962265014648,14.8070116043091,14.8178129196167,14.8286304473877,14.8394632339478,14.8503122329712,14.8611764907837,14.8720569610596,14.8829536437988,14.8938655853271,14.9047937393188,14.9157390594482,14.9266996383667,14.9376754760742,14.9486684799194,14.959677696228,14.970703125,15.2215814590454,15.6344013214111,18.1872024536133,18.1815280914307,0,0,0,0,0,0,0,0,0,15.334153175354,15.3412313461304,15.3483171463013,15.355411529541,15.362512588501,15.3696203231812,15.3767347335815,15.3838548660278,15.3909826278687,15.3981170654297,15.4052572250366,15.4124050140381,15.4195585250854,15.426718711853,15.4338865280151,15.4410600662231,15.4482402801514,15.4554281234741,15.4626216888428,15.469822883606,15.477029800415,15.4842433929443,15.5103197097778,16.5401439666748,0,0,0,0,0,0,0,0,0,0,0,0,0,0,0,0,0,0,0,0,0,0,0,0,0,0,0,0,0,0,0,0,0,0,0,0,0,0,0,0,0,0,0,0,0,0,0,0,0,0,0,0,0,0,0,0,0,0,0,0,0,0,0,0,0,0
11.57350730896,11.5737733840942,11.5740385055542,11.5743045806885,11.5745697021484,11.5748357772827,11.575101852417,11.5753679275513,11.5756330490112,11.5758991241455,11.5761651992798,11.5974292755127,11.6203460693359,11.6377944946289,11.6468744277954,11.6559686660767,11.6650772094727,11.6742000579834,11.6833372116089,11.6924886703491,11.7016544342041,11.7108345031738,11.7354469299316,11.7936182022095,11.8523683547974,11.9117078781128,11.9716444015503,12.0321846008301,12.0933380126953,12.1551170349121,12.217529296875,12.2805871963501,12.3442983627319,12.4086742401123,12.4737253189087,12.5394620895386,12.6058959960938,12.6730365753174,12.7408962249756,12.8094873428345,12.8788347244263,12.9489498138428,13.019832611084,13.091495513916,13.1639518737793,13.7380323410034,13.7558012008667,13.7736167907715,13.7914791107178,13.8093872070312,13.8273420333862,13.8453435897827,13.8633918762207,13.8814878463745,13.8996305465698,13.917820930481,13.9360589981079,13.9543447494507,13.9726791381836,13.9910612106323,14.0094919204712,14.0279712677002,14.0464992523193,14.0650758743286,14.0837020874023,14.1023778915405,14.119815826416,14.1296377182007,14.1394729614258,14.1493215560913,14.1591844558716,14.1690616607666,14.1789512634277,14.1888551712036,14.1987733840942,14.2087059020996,14.2186508178711,14.2286109924316,14.2385845184326,14.2485723495483,14.2585735321045,14.2685899734497,14.2786197662354,14.2886629104614,14.2987213134766,14.3087930679321,14.3188800811768,14.3289804458618,14.3390951156616,14.3492250442505,14.3593683242798,14.3695259094238,14.3796977996826,14.3898849487305,14.4000864028931,14.4103012084961,14.4205312728882,14.4307765960693,14.4410352706909,14.4513092041016,14.461597442627,14.4719009399414,14.4822187423706,14.4925508499146,14.5028982162476,14.5132598876953,14.5236368179321,14.534029006958,14.5444355010986,14.554856300354,14.5652933120728,14.5757446289062,14.5862112045288,14.5966920852661,14.6071891784668,14.6177005767822,14.6282272338867,14.6387691497803,14.6493263244629,14.6598987579346,14.6704864501953,14.6810894012451,14.691707611084,14.7023410797119,14.7129907608032,14.7236547470093,14.7343349456787,14.7450304031372,14.7557411193848,14.7664680480957,14.7772102355957,14.7879686355591,14.7987413406372,14.809531211853,14.8203353881836,14.8311567306519,14.8419933319092,14.8528451919556,14.8637142181396,14.8745985031128,14.885498046875,14.8964147567749,14.9073467254639,14.9182949066162,15.1183423995972,15.5255060195923,18.1743659973145,18.5970687866211,0,0,0,0,0,0,0,0,15.3642015457153,15.3713073730469,15.3784208297729,15.3855419158936,15.392671585083,15.3998069763184,15.4069490432739,15.4140977859497,15.4212532043457,15.4284152984619,15.4355840682983,15.442759513855,15.4499416351318,15.4571304321289,15.4643259048462,15.4715280532837,15.4787368774414,15.4859533309937,15.4931755065918,15.5004043579102,15.5076398849487,15.5148830413818,15.6262884140015,16.6383056640625,0,0,0,0,0,0,0,0,0,0,0,0,0,0,0,0,0,0,0,0,0,0,0,0,0,0,0,0,0,0,0,0,0,0,0,0,0,0,0,0,0,0,0,0,0,0,0,0,0,0,0,0,0,0,0,0,0,0,0,0,0,0,0,0,0
11.5736589431763,11.5739240646362,11.5741901397705,11.5744552612305,11.5747213363647,11.574987411499,11.575252532959,11.5755186080933,11.5757846832275,11.5760507583618,11.5763158798218,11.5980443954468,11.617338180542,11.6263866424561,11.6354484558105,11.6445245742798,11.6536159515381,11.6627206802368,11.6718397140503,11.6809730529785,11.6901206970215,11.6992826461792,11.7362813949585,11.7944612503052,11.8532199859619,11.9125680923462,11.9725112915039,12.0330591201782,12.0942220687866,12.1560096740723,12.2184314727783,12.2814979553223,12.3452196121216,12.4096050262451,12.4746656417847,12.5404119491577,12.6068553924561,12.6740064620972,12.7418775558472,12.8104782104492,12.8798351287842,12.9499607086182,13.0208549499512,13.092529296875,13.1649971008301,13.6975736618042,13.715238571167,13.732949256897,13.7507057189941,13.7685079574585,13.7863569259644,13.8042516708374,13.822193145752,13.8401803970337,13.8582162857056,13.8762979507446,13.8944272994995,13.9126043319702,13.9308280944824,13.9491004943848,13.9674205780029,13.9857892990112,14.0042057037354,14.0226716995239,14.034294128418,14.0439968109131,14.0537137985229,14.0634431838989,14.0731868743896,14.0829439163208,14.0927143096924,14.1024980545044,14.1122951507568,14.122106552124,14.1319313049316,14.141770362854,14.1516218185425,14.16148853302,14.1713676452637,14.1812610626221,14.1911687850952,14.2010898590088,14.2110252380371,14.2209739685059,14.2309370040894,14.2409133911133,14.2509050369263,14.2609100341797,14.2709293365479,14.2809619903564,14.2910089492798,14.3010702133179,14.3111457824707,14.3212356567383,14.3313398361206,14.3414583206177,14.3515901565552,14.3617372512817,14.371898651123,14.3820743560791,14.3922643661499,14.4024686813354,14.4126873016357,14.4229211807251,14.4331684112549,14.443431854248,14.4537086486816,14.4640007019043,14.4743070602417,14.4846277236938,14.4949636459351,14.5053148269653,14.5156803131104,14.5260601043701,14.5364561080933,14.5468654632568,14.5572910308838,14.5677309036255,14.5781850814819,14.5886554718018,14.5991401672363,14.60964012146,14.6201553344727,14.6306858062744,14.6412315368652,14.6517925262451,14.6623678207397,14.6729593276978,14.6835660934448,14.694188117981,14.7048244476318,14.7154779434204,14.7261457443237,14.7368297576904,14.7475290298462,14.758243560791,14.7689733505249,14.7797193527222,14.7904806137085,14.8012580871582,14.812050819397,14.8228597640991,14.8336839675903,14.8445243835449,14.8553800582886,14.8662519454956,15.0164928436279,15.418116569519,15.8418130874634,0,0,0,0,0,0,0,0,15.3943681716919,15.4015016555786,15.4086427688599,15.4157915115356,15.4229488372803,15.4301128387451,15.4372825622559,15.4444599151611,15.4516439437866,15.458833694458,15.4660310745239,15.4732351303101,15.4804449081421,15.4876623153687,15.4948863983154,15.5021171569824,15.5093545913696,15.5165987014771,15.5238494873047,15.5311079025269,15.5383720397949,15.5456438064575,15.7442960739136,16.7389144897461,0,0,0,0,0,0,0,0,0,0,0,0,0,0,0,0,0,0,0,0,0,0,0,0,0,0,0,0,0,0,0,0,0,0,0,0,0,0,0,0,0,0,0,0,0,0,0,0,0,0,0,0,0,0,0,0,0,0,0,0,0,0,0,0
11.5738096237183,11.5740756988525,11.5743408203125,11.5746068954468,11.5748729705811,11.575138092041,11.5754041671753,11.5756702423096,11.5759353637695,11.5762014389038,11.5764675140381,11.5969533920288,11.6059694290161,11.6150007247925,11.624044418335,11.6331033706665,11.6421766281128,11.6512632369995,11.660364151001,11.6694793701172,11.6786088943481,11.6877536773682,11.7371168136597,11.7953042984009,11.8540716171265,11.9134283065796,11.9733781814575,12.0339336395264,12.0951051712036,12.1569023132324,12.2193336486816,12.2824096679688,12.3461399078369,12.4105358123779,12.4756059646606,12.5413627624512,12.6078157424927,12.6749773025513,12.7428579330444,12.8114700317383,12.8808355331421,12.9509725570679,13.0218772888184,13.093563079834,13.1660423278809,13.6573524475098,13.6749134063721,13.6925201416016,13.7101716995239,13.7278699874878,13.7456130981445,13.7634019851685,13.7812376022339,13.7991189956665,13.8170471191406,13.8350219726562,13.8530435562134,13.871111869812,13.8892278671265,13.9073905944824,13.9256019592285,13.9402284622192,13.9498014450073,13.9593887329102,13.9689874649048,13.9786005020142,13.988226890564,13.9978666305542,14.0075187683105,14.0171852111816,14.0268640518188,14.0365571975708,14.0462636947632,14.0559825897217,14.0657157897949,14.0754623413086,14.0852222442627,14.0949954986572,14.1047830581665,14.1145839691162,14.1243982315063,14.1342258453369,14.1440677642822,14.153923034668,14.1637926101685,14.1736755371094,14.1835718154907,14.1934823989868,14.2034072875977,14.2133455276489,14.2232980728149,14.2332639694214,14.2432441711426,14.2532386779785,14.2632465362549,14.273268699646,14.2833051681519,14.2933559417725,14.3034200668335,14.3134994506836,14.3235921859741,14.3336992263794,14.3438205718994,14.3539571762085,14.364107131958,14.3742713928223,14.3844509124756,14.3946437835693,14.4048519134521,14.4150743484497,14.425311088562,14.4355621337891,14.4458284378052,14.456109046936,14.4664039611816,14.4767141342163,14.4870386123657,14.4973783493042,14.5077323913574,14.5181007385254,14.5284852981567,14.5388832092285,14.5492973327637,14.5597257614136,14.5701694488525,14.5806274414062,14.591100692749,14.6015892028809,14.6120929718018,14.6226119995117,14.6331453323364,14.6436939239502,14.6542587280273,14.6648378372192,14.6754331588745,14.6860427856445,14.6966686248779,14.7073097229004,14.7179660797119,14.7286376953125,14.7393245697021,14.7500276565552,14.7607460021973,14.7714796066284,14.7822294235229,14.7929944992065,14.8037748336792,14.8145713806152,14.9160070419312,15.3122024536133,15.730019569397,0,0,0,0,0,0,0,15.4246530532837,15.4318151473999,15.4389839172363,15.4461603164673,15.4533452987671,15.4605369567871,15.4677362442017,15.4749412536621,15.4821538925171,15.489372253418,15.4965982437134,15.5038299560547,15.5110692977905,15.5183153152466,15.5255680084229,15.5328273773193,15.540093421936,15.5473661422729,15.5546455383301,15.5619325637817,15.5692262649536,15.5765266418457,15.8640995025635,16.8407497406006,0,0,0,0,0,0,0,0,0,0,0,0,0,0,0,0,0,0,0,0,0,0,0,0,0,0,0,0,0,0,0,0,0,0,0,0,0,0,0,0,0,0,0,0,0,0,0,0,0,0,0,0,0,0,0,0,0,0,0,0,0,0,0
11.5739612579346,11.5742263793945,11.5744924545288,11.5747585296631,11.575023651123,11.5752897262573,11.5755558013916,11.5758209228516,11.5760869979858,11.5763530731201,11.5766191482544,11.5856246948242,11.5946235656738,11.6036367416382,11.612663269043,11.6217041015625,11.6307592391968,11.6398286819458,11.6489114761353,11.6580095291138,11.6671209335327,11.6803274154663,11.7379512786865,11.7961483001709,11.8549242019653,11.91428565979,11.9742441177368,12.0348091125488,12.0959892272949,12.1577949523926,12.220235824585,12.2833213806152,12.3470611572266,12.4114656448364,12.4765462875366,12.5423126220703,12.6087760925293,12.6759481430054,12.743839263916,12.8124618530273,12.8818359375,12.9519834518433,13.0228996276855,13.094596862793,13.1670875549316,13.6173667907715,13.6348247528076,13.6523284912109,13.6698770523071,13.6874704360962,13.7051095962524,13.7227935791016,13.7405242919922,13.75830078125,13.7761220932007,13.7939910888672,13.8119058609009,13.8298664093018,13.8474149703979,13.8568620681763,13.8663206100464,13.8757925033569,13.8852777481079,13.894775390625,13.9042863845825,13.9138107299805,13.9233484268188,13.932897567749,13.9424610137939,13.9520378112793,13.9616270065308,13.9712295532227,13.9808464050293,13.9904747009277,14.0001173019409,14.0097732543945,14.0194425582886,14.029125213623,14.0388212203979,14.048529624939,14.0582523345947,14.0679883956909,14.0777387619019,14.0875015258789,14.0972785949707,14.1070690155029,14.1168727874756,14.1266899108887,14.1365213394165,14.1463661193848,14.1562252044678,14.1660976409912,14.1759834289551,14.1858835220337,14.1957969665527,14.2057247161865,14.2156667709351,14.225622177124,14.2355918884277,14.2455749511719,14.2555723190308,14.2655839920044,14.2756090164185,14.2856492996216,14.2957029342651,14.3057708740234,14.3158531188965,14.3259496688843,14.3360595703125,14.3461847305298,14.3563241958618,14.3664779663086,14.3766450881958,14.3868274688721,14.3970251083374,14.4072360992432,14.4174613952637,14.4277019500732,14.4379568099976,14.4482259750366,14.4585103988647,14.4688081741333,14.4791221618652,14.4894504547119,14.4997930526733,14.5101499557495,14.5205230712891,14.5309104919434,14.5413122177124,14.5517292022705,14.5621614456177,14.5726079940796,14.5830698013306,14.5935468673706,14.6040391921997,14.6145458221436,14.6250686645508,14.6356058120728,14.6461582183838,14.6567258834839,14.667308807373,14.6779079437256,14.6885213851929,14.6991500854492,14.7097949981689,14.7204542160034,14.7311296463013,14.7418203353882,14.7525272369385,14.7632493972778,14.8168573379517,15.2077341079712,15.6197929382324,0,0,0,0,0,0,15.4550580978394,15.4622478485107,15.4694452285767,15.4766492843628,15.4838619232178,15.4910831451416,15.4983100891113,15.5055437088013,15.5127840042114,15.5200319290161,15.5272855758667,15.5345468521118,15.5418148040771,15.5490894317627,15.5563707351685,15.5636587142944,15.5709543228149,15.5782556533813,15.5855646133423,15.5928802490234,15.6002025604248,15.6075325012207,15.9857397079468,16.9438304901123,0,0,0,0,0,0,0,0,0,0,0,0,0,0,0,0,0,0,0,0,0,0,0,0,0,0,0,0,0,0,0,0,0,0,0,0,0,0,0,0,0,0,0,0,0,0,0,0,0,0,0,0,0,0,0,0,0,0,0,0,0,0
11.5741119384766,11.5743780136108,11.5746431350708,11.5749092102051,11.5751752853394,11.5754413604736,11.5757064819336,11.5759725570679,11.5762386322021,11.5765037536621,11.5767698287964,11.5770359039307,11.5832996368408,11.5922956466675,11.6013040542603,11.6103277206421,11.6193647384644,11.6284160614014,11.6374816894531,11.6465616226196,11.6556549072266,11.6811542510986,11.7387866973877,11.7969913482666,11.8557739257812,11.9151430130005,11.9751100540161,12.035683631897,12.0968732833862,12.1586885452271,12.2211380004883,12.2842330932617,12.3479824066162,12.4123964309692,12.4774866104126,12.5432634353638,12.6097373962402,12.6769189834595,12.7448205947876,12.8134536743164,12.8828363418579,12.952995300293,13.0239229202271,13.0956315994263,13.1681337356567,13.5776147842407,13.594970703125,13.6123723983765,13.6298179626465,13.6473083496094,13.6648445129395,13.6824254989624,13.7000503540039,13.7177219390869,13.7354393005371,13.7532024383545,13.7651519775391,13.7744855880737,13.7838335037231,13.7931928634644,13.802565574646,13.8119497299194,13.8213481903076,13.8307590484619,13.8401823043823,13.8496189117432,13.8590679168701,13.8685302734375,13.878005027771,13.8874931335449,13.896993637085,13.9065084457397,13.9160346984863,13.9255752563477,13.9351282119751,13.944694519043,13.9542741775513,13.9638671875,13.9734725952148,13.9830913543701,13.9927244186401,14.0023698806763,14.0120286941528,14.0217008590698,14.0313863754272,14.0410852432251,14.0507974624634,14.0605230331421,14.0702629089355,14.0800151824951,14.0897817611694,14.0995616912842,14.1093549728394,14.1191625595093,14.1289834976196,14.1388177871704,14.1486654281616,14.1585273742676,14.168402671814,14.1782922744751,14.1881952285767,14.198112487793,14.2080430984497,14.2179880142212,14.2279472351074,14.2379198074341,14.2479066848755,14.2579069137573,14.2679224014282,14.2779512405396,14.2879934310913,14.2980508804321,14.3081226348877,14.3182077407837,14.3283071517944,14.3384218215942,14.3485498428345,14.3586921691895,14.3688488006592,14.379020690918,14.3892059326172,14.3994064331055,14.4096202850342,14.4198503494263,14.4300937652588,14.4403514862061,14.4506244659424,14.4609117507935,14.4712142944336,14.4815311431885,14.4918622970581,14.5022087097168,14.5125694274902,14.5229454040527,14.5333366394043,14.5437421798706,14.5541620254517,14.5645980834961,14.5750484466553,14.5855131149292,14.5959939956665,14.6064891815186,14.6169996261597,14.6275262832642,14.6380662918091,14.6486225128174,14.6591939926147,14.6697807312012,14.6803827285767,14.6909999847412,14.7016324996948,14.7122812271118,14.7229442596436,15.1046810150146,15.5110998153687,15.9399938583374,0,0,0,0,15.4855823516846,15.4928016662598,15.5000267028809,15.5072593688965,15.5144996643066,15.5217485427856,15.5290050506592,15.5362672805786,15.5435371398926,15.5508127212524,15.5580959320068,15.5653858184814,15.5726823806763,15.5799856185913,15.5872964859009,15.5946130752563,15.6019372940063,15.6092681884766,15.6166067123413,15.623950958252,15.6313028335571,15.6386613845825,16.109260559082,17.0481815338135,0,0,0,0,0,0,0,0,0,0,0,0,0,0,0,0,0,0,0,0,0,0,0,0,0,0,0,0,0,0,0,0,0,0,0,0,0,0,0,0,0,0,0,0,0,0,0,0,0,0,0,0,0,0,0,0,0,0,0,0,0
11.5742635726929,11.5745286941528,11.5747947692871,11.5750608444214,11.5753259658813,11.5755920410156,11.5758581161499,11.5761241912842,11.5763893127441,11.5766553878784,11.5769214630127,11.577187538147,11.5774536132812,11.5809755325317,11.5899677276611,11.598973274231,11.6079931259155,11.6170263290405,11.6260738372803,11.6351356506348,11.644211769104,11.681981086731,11.7396221160889,11.7978343963623,11.8566236495972,11.9160013198853,11.9759769439697,12.0365591049194,12.0977573394775,12.1595811843872,12.2220401763916,12.2851438522339,12.3489036560059,12.4133272171021,12.4784278869629,12.5442142486572,12.6106977462769,12.6778898239136,12.7458019256592,12.8144454956055,12.8838376998901,12.9540071487427,13.0249462127686,13.0966653823853,13.1691789627075,13.5380935668945,13.5553493499756,13.5726490020752,13.5899934768677,13.6073818206787,13.6248149871826,13.6422929763794,13.6598148345947,13.6746482849121,13.6838598251343,13.6930837631226,13.7023210525513,13.7115707397461,13.7208318710327,13.7301063537598,13.7393932342529,13.7486925125122,13.7580041885376,13.7673292160034,13.7766666412354,13.7860164642334,13.7953786849976,13.8047542572021,13.8141422271729,13.8235425949097,13.8329572677612,13.8423833847046,13.8518228530884,13.8612747192383,13.8707399368286,13.8802175521851,13.8897094726562,13.8992128372192,13.9087295532227,13.9182605743408,13.9278030395508,13.9373598098755,13.9469289779663,13.9565114974976,13.9661073684692,13.9757165908813,13.9853382110596,13.9949741363525,14.0046224594116,14.0142841339111,14.0239591598511,14.0336484909058,14.0433502197266,14.0530662536621,14.0627946853638,14.0725374221802,14.082293510437,14.0920629501343,14.101845741272,14.1116428375244,14.1214532852173,14.1312770843506,14.1411142349243,14.1509656906128,14.1608304977417,14.1707096099854,14.1806020736694,14.1905088424683,14.2004289627075,14.2103633880615,14.220311164856,14.2302732467651,14.2402486801147,14.2502393722534,14.2602434158325,14.2702608108521,14.2802934646606,14.2903394699097,14.3003997802734,14.310474395752,14.3205633163452,14.3306665420532,14.340784072876,14.3509149551392,14.3610610961914,14.3712215423584,14.3813962936401,14.3915843963623,14.4017887115479,14.4120063781738,14.4222393035889,14.4324855804443,14.4427480697632,14.4530239105225,14.4633150100708,14.4736204147339,14.4839401245117,14.4942750930786,14.5046253204346,14.5149898529053,14.5253686904907,14.5357627868652,14.5461721420288,14.5565958023071,14.5670347213745,14.577488899231,14.5879573822021,14.5984420776367,14.608941078186,14.6194553375244,14.6299839019775,14.640528678894,14.6510887145996,14.6616630554199,14.6722536087036,15.0030164718628,15.4039087295532,15.8268146514893,0,0,0,15.516227722168,15.5234756469727,15.5307302474976,15.5379915237427,15.5452585220337,15.5525369644165,15.5598211288452,15.5671129226685,15.5744113922119,15.5817165374756,15.5890283584595,15.5963468551636,15.6036729812622,15.6110057830811,15.6183452606201,15.6256914138794,15.6330442428589,15.6404047012329,15.6477718353271,15.6551465988159,15.6625270843506,15.6699151992798,16.250675201416,17.1538257598877,0,0,0,0,0,0,0,0,0,0,0,0,0,0,0,0,0,0,0,0,0,0,0,0,0,0,0,0,0,0,0,0,0,0,0,0,0,0,0,0,0,0,0,0,0,0,0,0,0,0,0,0,0,0,0,0,0,0,0,0
11.5744142532349,11.5746803283691,11.5749464035034,11.5752115249634,11.5754776000977,11.5757436752319,11.5760087966919,11.5762748718262,11.5765409469604,11.5768070220947,11.577073097229,11.577338218689,11.5776042938232,11.5778703689575,11.578652381897,11.5876407623291,11.5966424942017,11.605658531189,11.614688873291,11.6237325668335,11.6327905654907,11.6828088760376,11.74045753479,11.7986755371094,11.8574724197388,11.9168586730957,11.976842880249,12.0374345779419,12.0986413955688,12.1604747772217,12.2229433059692,12.2860565185547,12.3498249053955,12.4142589569092,12.4793682098389,12.5451650619507,12.6116580963135,12.6788606643677,12.7467832565308,12.8154373168945,12.8848390579224,12.9550199508667,13.0259695053101,13.0977001190186,13.1702251434326,13.4988021850586,13.5159578323364,13.5331573486328,13.5504007339478,13.5676879882812,13.5850191116333,13.5944185256958,13.6035223007202,13.6126384735107,13.6217670440674,13.6309080123901,13.640061378479,13.6492261886597,13.6584043502808,13.6675939559937,13.676796913147,13.6860113143921,13.6952381134033,13.704478263855,13.7137308120728,13.7229948043823,13.7322721481323,13.7415618896484,13.7508640289307,13.7601795196533,13.7695064544678,13.7788467407227,13.7881994247437,13.7975654602051,13.8069438934326,13.8163347244263,13.825737953186,13.8351554870605,13.8445844650269,13.8540267944336,13.8634824752808,13.872950553894,13.8824310302734,13.8919258117676,13.9014320373535,13.9109525680542,13.920485496521,13.9300317764282,13.9395914077759,13.949164390564,13.9587497711182,13.9683485031128,13.9779605865479,13.987585067749,13.9972238540649,14.0068759918213,14.0165405273438,14.026219367981,14.0359115600586,14.0456161499023,14.0553350448608,14.0650672912598,14.0748128890991,14.0845718383789,14.0943441390991,14.1041307449341,14.1139307022095,14.1237440109253,14.1335706710815,14.1434116363525,14.153265953064,14.1631345748901,14.1730165481567,14.1829128265381,14.1928224563599,14.2027454376221,14.2126836776733,14.2226343154907,14.2326002120972,14.242579460144,14.2525720596313,14.2625799179077,14.2726011276245,14.2826366424561,14.292685508728,14.3027496337891,14.3128271102905,14.3229198455811,14.333025932312,14.3431463241577,14.3532810211182,14.3634309768677,14.3735942840576,14.3837718963623,14.3939647674561,14.4041719436646,14.4143924713135,14.4246292114258,14.4348793029785,14.4451446533203,14.4554243087769,14.4657182693481,14.4760274887085,14.4863510131836,14.4966888427734,14.5070419311523,14.5174102783203,14.527792930603,14.5381908416748,14.5486030578613,14.5590305328369,14.5694732666016,14.579930305481,14.5904026031494,14.6008901596069,14.6113929748535,14.6219110488892,14.9027099609375,15.2981901168823,15.7152318954468,0,0,15.5469951629639,15.554271697998,15.5615549087524,15.5688447952271,15.5761413574219,15.5834465026855,15.5907602310181,15.5980806350708,15.6054086685181,15.6127424240112,15.6200838088989,15.6274318695068,15.634786605835,15.6421489715576,15.6495170593262,15.6568937301636,15.6642761230469,15.6716661453247,15.6790618896484,15.686466217041,15.6938762664795,15.7012939453125,16.3306083679199,17.2607879638672,0,0,0,0,0,0,0,0,0,0,0,0,0,0,0,0,0,0,0,0,0,0,0,0,0,0,0,0,0,0,0,0,0,0,0,0,0,0,0,0,0,0,0,0,0,0,0,0,0,0,0,0,0,0,0,0,0,0,0
11.5745658874512,11.5748319625854,11.5750970840454,11.5753631591797,11.575629234314,11.5758943557739,11.5761604309082,11.5764265060425,11.5766925811768,11.5769577026367,11.577223777771,11.5774898529053,11.5777559280396,11.5780220031738,11.5782880783081,11.5785531997681,11.5853147506714,11.594313621521,11.603325843811,11.6123523712158,11.6265420913696,11.6836357116699,11.7412910461426,11.7995166778564,11.8583221435547,11.9177169799805,11.9777097702026,12.0383100509644,12.0995264053345,12.1613683700562,12.2238454818726,12.2869682312012,12.3507461547852,12.415189743042,12.4803094863892,12.5461158752441,12.6126194000244,12.6798324584961,12.7477655410767,12.8164300918579,12.8858404159546,12.9560317993164,13.0269927978516,13.0987348556519,13.1712713241577,13.45973777771,13.4767942428589,13.4938945770264,13.5061388015747,13.5151243209839,13.5241222381592,13.5331335067749,13.5421552658081,13.5511894226074,13.5602359771729,13.5692939758301,13.5783643722534,13.5874471664429,13.5965414047241,13.6056489944458,13.6147680282593,13.6238994598389,13.6330432891846,13.6421985626221,13.6513671875,13.6605472564697,13.6697406768799,13.6789455413818,13.6881637573242,13.6973934173584,13.706636428833,13.7158908843994,13.7251586914062,13.7344388961792,13.7437314987183,13.7530364990234,13.762354850769,13.7716856002808,13.7810277938843,13.7903842926025,13.7997531890869,13.8091335296631,13.818528175354,13.8279342651367,13.8373546600342,13.8467864990234,13.8562326431274,13.8656902313232,13.8751611709595,13.8846454620361,13.8941431045532,13.9036531448364,13.9131765365601,13.9227123260498,13.93226146698,13.9418239593506,13.9513998031616,13.9609880447388,13.9705896377563,13.9802045822144,13.9898328781128,13.9994745254517,14.009129524231,14.0187978744507,14.0284795761108,14.0381746292114,14.0478830337524,14.0576047897339,14.0673398971558,14.0770883560181,14.0868511199951,14.0966272354126,14.1064167022705,14.1162195205688,14.1260356903076,14.1358661651611,14.1457099914551,14.1555681228638,14.1654396057129,14.1753244400024,14.1852235794067,14.1951370239258,14.2050638198853,14.2150039672852,14.2249584197998,14.2349271774292,14.244909286499,14.2549057006836,14.2649164199829,14.274941444397,14.2849798202515,14.295033454895,14.305100440979,14.3151807785034,14.3252763748169,14.3353862762451,14.3455104827881,14.3556480407715,14.3658008575439,14.3759679794312,14.3861494064331,14.3963451385498,14.4065551757812,14.4167804718018,14.4270191192627,14.4372730255127,14.4475421905518,14.4578247070312,14.4681224822998,14.4784345626831,14.4887619018555,14.4991035461426,14.5094604492188,14.5198316574097,14.5302181243896,14.5406188964844,14.5510349273682,14.561466217041,14.5719118118286,14.8037366867065,15.1939115524292,15.6052112579346,0,15.5778846740723,15.5851898193359,15.5925016403198,15.5998210906982,15.6071462631226,15.6144800186157,15.6218233108521,15.6291723251343,15.636528968811,15.6438932418823,15.6512632369995,15.6586408615112,15.6660251617432,15.6734161376953,15.680814743042,15.6882200241089,15.695631980896,15.7030515670776,15.7104778289795,15.7179117202759,15.7253513336182,15.7327995300293,16.4243793487549,17.6776294708252,0,0,0,0,0,0,0,0,0,0,0,0,0,0,0,0,0,0,0,0,0,0,0,0,0,0,0,0,0,0,0,0,0,0,0,0,0,0,0,0,0,0,0,0,0,0,0,0,0,0,0,0,0,0,0,0,0,0
11.5747175216675,11.5749826431274,11.5752487182617,11.575514793396,11.575779914856,11.5760459899902,11.5763120651245,11.5765781402588,11.5768432617188,11.577109336853,11.5773754119873,11.5776414871216,11.5779075622559,11.5781726837158,11.5784387588501,11.5787048339844,11.5789709091187,11.582989692688,11.5919847488403,11.6009931564331,11.6273612976074,11.6844615936279,11.7421236038208,11.8003578186035,11.8591718673706,11.9185752868652,11.9785766601562,12.0391855239868,12.1004104614258,12.1622619628906,12.2247486114502,12.2878799438477,12.3516683578491,12.4161214828491,12.4812507629395,12.5470666885376,12.6135807037354,12.6808032989502,12.7487468719482,12.8174228668213,12.8868417739868,12.9570446014404,13.0280160903931,13.0997695922852,13.1723175048828,13.4189977645874,13.4278678894043,13.4367504119873,13.4456443786621,13.454550743103,13.4634685516357,13.4723978042603,13.4813385009766,13.4902925491333,13.4992570877075,13.5082349777222,13.5172233581543,13.5262241363525,13.5352373123169,13.544261932373,13.5532989501953,13.5623483657837,13.5714092254639,13.5804824829102,13.5895681381226,13.5986661911011,13.6077756881714,13.6168975830078,13.6260318756104,13.635178565979,13.6443367004395,13.6535081863403,13.6626920700073,13.6718873977661,13.681095123291,13.6903162002563,13.6995487213135,13.708794593811,13.7180528640747,13.7273235321045,13.7366065979004,13.7459020614624,13.7552099227905,13.7645311355591,13.7738637924194,13.7832107543945,13.7925691604614,13.8019409179688,13.8113250732422,13.8207216262817,13.8301315307617,13.8395547866821,13.8489894866943,13.8584384918213,13.8678998947144,13.8773736953735,13.8868608474731,13.8963613510132,13.9058742523193,13.9154005050659,13.9249391555786,13.9344921112061,13.9440574645996,13.9536361694336,13.9632272720337,13.9728326797485,13.9824504852295,13.9920825958252,14.001727104187,14.0113849639893,14.0210561752319,14.030740737915,14.0404386520386,14.0501508712769,14.0598754882812,14.0696134567261,14.0793657302856,14.0891313552856,14.0989103317261,14.1087026596069,14.1185092926025,14.1283283233643,14.138162612915,14.1480093002319,14.1578702926636,14.1677446365356,14.1776332855225,14.1875352859497,14.1974515914917,14.2073822021484,14.2173261642456,14.2272834777832,14.2372550964355,14.2472410202026,14.2572412490845,14.2672548294067,14.2772827148438,14.2873249053955,14.2973804473877,14.3074512481689,14.3175354003906,14.3276348114014,14.3377475738525,14.3478746414185,14.3580160140991,14.3681726455688,14.378342628479,14.3885269165039,14.3987264633179,14.4089403152466,14.41916847229,14.4294109344482,14.4396677017212,14.4499397277832,14.46022605896,14.4705276489258,14.4808435440063,14.4911737442017,14.501519203186,14.5118789672852,14.5222539901733,14.7060680389404,15.0910453796387,15.4967203140259,15.6088962554932,15.6162309646606,15.6235723495483,15.6309204101562,15.6382761001587,15.645637512207,15.6530094146729,15.6603889465332,15.6677751541138,15.6751680374146,15.6825675964355,15.6899747848511,15.6973886489868,15.7048091888428,15.7122373580933,15.719672203064,15.7271146774292,15.7345638275146,15.7420196533203,15.7494831085205,15.7569532394409,15.7644309997559,16.5192356109619,0,0,0,0,0,0,0,0,0,0,0,0,0,0,0,0,0,0,0,0,0,0,0,0,0,0,0,0,0,0,0,0,0,0,0,0,0,0,0,0,0,0,0,0,0,0,0,0,0,0,0,0,0,0,0,0,0,0
11.5748682022095,11.5751342773438,11.5753993988037,11.575665473938,11.5759315490723,11.5761976242065,11.5764627456665,11.5767288208008,11.5769948959351,11.5772609710693,11.5775270462036,11.5777921676636,11.5780582427979,11.5783243179321,11.5785903930664,11.5788564682007,11.579122543335,11.5793886184692,11.5806665420532,11.589656829834,11.6281805038452,11.6852865219116,11.7429571151733,11.8011989593506,11.8600215911865,11.91943359375,11.9794435501099,12.0400609970093,12.1012954711914,12.1631555557251,12.2256517410278,12.2887926101685,12.3525896072388,12.4170522689819,12.4821920394897,12.5480175018311,12.6145420074463,12.6817750930786,12.7497291564941,12.8184146881104,12.8878450393677,12.9580574035645,13.0290393829346,13.1008043289185,13.1733646392822,13.3592805862427,13.3680715560913,13.3768749237061,13.3856906890869,13.3945169448853,13.4033546447754,13.4122047424316,13.4210662841797,13.4299402236938,13.4388246536255,13.4477214813232,13.4566307067871,13.4655504226685,13.4744834899902,13.4834270477295,13.4923830032349,13.5013513565063,13.5103311538696,13.5193223953247,13.5283260345459,13.5373420715332,13.5463695526123,13.5554094314575,13.5644617080688,13.573525428772,13.5826015472412,13.5916900634766,13.6007900238037,13.6099033355713,13.6190280914307,13.6281652450562,13.6373138427734,13.6464757919312,13.655650138855,13.6648359298706,13.6740350723267,13.6832456588745,13.6924695968628,13.7017059326172,13.7109537124634,13.72021484375,13.7294883728027,13.7387742996216,13.7480726242065,13.7573833465576,13.7667074203491,13.7760438919067,13.7853927612305,13.7947549819946,13.8041296005249,13.8135166168213,13.8229169845581,13.832329750061,13.8417549133301,13.8511934280396,13.8606443405151,13.8701095581055,13.8795862197876,13.8890762329102,13.8985795974731,13.9080953598022,13.9176254272461,13.9271678924561,13.9367227554321,13.9462909698486,13.9558734893799,13.9654674530029,13.9750757217407,13.9846973419189,13.9943313598633,14.0039796829224,14.0136404037476,14.0233144760132,14.0330028533936,14.04270362854,14.0524187088013,14.0621461868286,14.0718879699707,14.0816431045532,14.0914115905762,14.1011943817139,14.1109895706177,14.1207990646362,14.1306219100952,14.1404590606689,14.1503095626831,14.1601734161377,14.170051574707,14.1799430847168,14.189847946167,14.1997680664062,14.2097015380859,14.2196483612061,14.2296094894409,14.2395839691162,14.2495737075806,14.2595767974854,14.2695932388306,14.2796249389648,14.2896699905396,14.299729347229,14.3098030090332,14.3198909759521,14.3299932479858,14.3401098251343,14.3502397537231,14.3603849411011,14.3705444335938,14.3807182312012,14.3909063339233,14.4011087417603,14.4113254547119,14.4215574264526,14.4318027496338,14.442063331604,14.4523391723633,14.4626293182373,14.4729337692261,14.6096811294556,14.9895629882812,15.3897275924683,15.6473960876465,15.654767036438,15.6621446609497,15.6695289611816,15.6769208908081,15.6843204498291,15.6917295455933,15.6991453170776,15.7065677642822,15.7139978408813,15.7214336395264,15.7288780212402,15.736328125,15.7437868118286,15.7512512207031,15.7587232589722,15.7662029266357,15.7736883163452,15.7811822891235,15.7886819839478,15.7961902618408,16.6151924133301,0,0,0,0,0,0,0,0,0,0,0,0,0,0,0,0,0,0,0,0,0,0,0,0,0,0,0,0,0,0,0,0,0,0,0,0,0,0,0,0,0,0,0,0,0,0,0,0,0,0,0,0,0,0,0,0,0
11.5750198364258,11.5752849578857,11.57555103302,11.5758171081543,11.5760831832886,11.5763483047485,11.5766143798828,11.5768804550171,11.5771465301514,11.5774116516113,11.5776777267456,11.5779438018799,11.5782098770142,11.5784759521484,11.5787420272827,11.579008102417,11.579273223877,11.5795392990112,11.5798053741455,11.5800714492798,11.6289978027344,11.6861124038696,11.7437896728516,11.8020401000977,11.8608713150024,11.9202919006348,11.9803104400635,12.0409374237061,12.102180480957,12.1640491485596,12.2265539169312,12.2897052764893,12.3535118103027,12.4179840087891,12.48313331604,12.5489692687988,12.6155033111572,12.682746887207,12.75071144104,12.8194074630737,12.8888483047485,12.9590702056885,13.0300636291504,13.1018400192261,13.1744108200073,13.3000917434692,13.3088054656982,13.3175315856934,13.326268196106,13.3350162506104,13.3437767028809,13.3525476455688,13.3613309860229,13.3701248168945,13.3789310455322,13.3877487182617,13.3965787887573,13.4054193496704,13.4142723083496,13.4231357574463,13.4320125579834,13.440899848938,13.4497995376587,13.4587106704712,13.4676342010498,13.4765691757202,13.4855155944824,13.4944744110107,13.5034456253052,13.5124282836914,13.5214223861694,13.5304288864136,13.5394477844238,13.5484781265259,13.557520866394,13.5665760040283,13.5756425857544,13.5847215652466,13.5938129425049,13.602915763855,13.6120309829712,13.6211585998535,13.630298614502,13.6394510269165,13.6486158370972,13.6577920913696,13.6669816970825,13.6761827468872,13.6853971481323,13.6946239471436,13.7038621902466,13.71311378479,13.7223777770996,13.7316541671753,13.7409429550171,13.750244140625,13.7595586776733,13.7688856124878,13.778223991394,13.787576675415,13.7969408035278,13.8063182830811,13.8157091140747,13.8251113891602,13.8345279693604,13.8439559936523,13.8533973693848,13.8628520965576,13.8723192214966,13.881799697876,13.8912935256958,13.9007987976074,13.9103183746338,13.9198503494263,13.9293956756592,13.9389543533325,13.9485263824463,13.9581108093262,13.9677085876465,13.9773197174072,13.9869441986084,13.99658203125,14.0062322616577,14.0158967971802,14.0255746841431,14.0352649688721,14.0449695587158,14.0546875,14.0644187927246,14.0741634368896,14.0839214324951,14.0936937332153,14.1034784317017,14.1132774353027,14.1230897903442,14.1329164505005,14.1427564620972,14.1526098251343,14.1624774932861,14.1723585128784,14.1822528839111,14.1921615600586,14.2020845413208,14.2120208740234,14.2219715118408,14.2319355010986,14.2419137954712,14.2519063949585,14.2619123458862,14.2719326019287,14.2819671630859,14.2920160293579,14.3020792007446,14.3121557235718,14.322247505188,14.3323526382446,14.342472076416,14.3526058197021,14.362753868103,14.372917175293,14.3830938339233,14.3932857513428,14.4034910202026,14.4137115478516,14.4239463806152,14.5145483016968,14.8894357681274,15.2842025756836,15.6860866546631,15.6934938430786,15.7009077072144,15.7083292007446,15.7157573699951,15.7231960296631,15.7306413650513,15.738094329834,15.7455530166626,15.7530202865601,15.7604932785034,15.7679748535156,15.7754621505737,15.7829570770264,15.7904596328735,15.7979688644409,15.8054847717285,15.8130083084106,15.8205394744873,15.8280773162842,16.7122707366943,0,0,0,0,0,0,0,0,0,0,0,0,0,0,0,0,0,0,0,0,0,0,0,0,0,0,0,0,0,0,0,0,0,0,0,0,0,0,0,0,0,0,0,0,0,0,0,0,0,0,0,0,0,0,0,0
11.5751705169678,11.5754365921021,11.5757026672363,11.5759677886963,11.5762338638306,11.5764999389648,11.5767660140991,11.5770311355591,11.5772972106934,11.5775632858276,11.5778293609619,11.5780954360962,11.5783615112305,11.5786266326904,11.5788927078247,11.579158782959,11.5794248580933,11.5796909332275,11.5799570083618,11.5802230834961,11.6298151016235,11.6869373321533,11.7446231842041,11.802882194519,11.8617210388184,11.9211502075195,11.9811782836914,12.0418128967285,12.1030654907227,12.1649436950684,12.2274580001831,12.2906179428101,12.3544340133667,12.4189157485962,12.4840745925903,12.5499210357666,12.6164646148682,12.6837186813354,12.7516937255859,12.8204011917114,12.8898525238037,12.9600830078125,13.0310878753662,13.1028747558594,13.1754579544067,13.2414255142212,13.2500629425049,13.2587118148804,13.2673711776733,13.2760429382324,13.284725189209,13.2934188842773,13.3021240234375,13.3108415603638,13.3195695877075,13.3283090591431,13.3370599746704,13.3458223342896,13.3545961380005,13.3633813858032,13.3721790313721,13.3809881210327,13.3898077011108,13.3986406326294,13.4074840545654,13.4163398742676,13.4252061843872,13.4340848922729,13.4429759979248,13.4518775939941,13.4607925415039,13.4697179794312,13.4786558151245,13.4876050949097,13.4965667724609,13.505539894104,13.5145263671875,13.5235233306885,13.5325326919556,13.5415534973145,13.5505876541138,13.5596332550049,13.5686902999878,13.5777597427368,13.586841583252,13.5959358215332,13.6050415039062,13.6141605377197,13.623291015625,13.6324329376221,13.6415882110596,13.6507558822632,13.6599359512329,13.6691274642944,13.6783323287964,13.6875486373901,13.6967782974243,13.7060203552246,13.715274810791,13.7245407104492,13.7338209152222,13.7431125640869,13.7524166107178,13.7617340087891,13.7710638046265,13.78040599823,13.7897605895996,13.7991285324097,13.8085088729858,13.8179016113281,13.8273077011108,13.836727142334,13.8461580276489,13.8556022644043,13.8650598526001,13.8745307922363,13.8840141296387,13.8935098648071,13.903018951416,13.9125413894653,13.9220771789551,13.9316253662109,13.9411869049072,13.9507617950439,13.9603490829468,13.96994972229,13.979564666748,13.9891920089722,13.9988327026367,14.0084867477417,14.0181541442871,14.0278348922729,14.0375289916992,14.0472364425659,14.056957244873,14.0666913986206,14.0764389038086,14.0862007141113,14.0959758758545,14.1057643890381,14.1155662536621,14.1253814697266,14.1352109909058,14.1450548171997,14.1549110412598,14.1647815704346,14.1746664047241,14.1845645904541,14.1944761276245,14.2044019699097,14.2143421173096,14.2242956161499,14.2342624664307,14.2442445755005,14.2542400360107,14.2642498016357,14.2742729187012,14.2843112945557,14.2943630218506,14.3044290542603,14.3145093917847,14.3246040344238,14.3347129821777,14.3448352813721,14.3549728393555,14.3651247024536,14.3752908706665,14.4206476211548,14.7906379699707,15.1801137924194,15.5906572341919,15.7324123382568,15.7398633956909,15.7473211288452,15.754789352417,15.762264251709,15.7697467803955,15.7772359848022,15.7847328186035,15.7922372817993,15.799747467041,15.8072662353516,15.8147916793823,15.8223237991333,15.8298635482788,15.8374099731445,15.8449640274048,15.8525257110596,15.9148206710815,16.8104915618896,0,0,0,0,0,0,0,0,0,0,0,0,0,0,0,0,0,0,0,0,0,0,0,0,0,0,0,0,0,0,0,0,0,0,0,0,0,0,0,0,0,0,0,0,0,0,0,0,0,0,0,0,0,0,0
11.5753221511841,11.5755882263184,11.5758533477783,11.5761194229126,11.5763854980469,11.5766515731812,11.5769166946411,11.5771827697754,11.5774488449097,11.5777149200439,11.5779809951782,11.5782461166382,11.5785121917725,11.5787782669067,11.579044342041,11.5793104171753,11.5795764923096,11.5798425674438,11.5801086425781,11.5803747177124,11.6306324005127,11.687762260437,11.7454566955566,11.8037233352661,11.8625717163086,11.9220094680786,11.982045173645,12.0426893234253,12.1039505004883,12.1658372879028,12.2283611297607,12.2915306091309,12.3553562164307,12.4198474884033,12.4850158691406,12.5508718490601,12.6174268722534,12.6846904754639,12.7526760101318,12.8213939666748,12.8908557891846,12.9610958099365,13.032112121582,13.103910446167,13.1747245788574,13.1832752227783,13.1918363571167,13.2004089355469,13.2089929580688,13.2175884246826,13.2261943817139,13.2348117828369,13.2434406280518,13.2520799636841,13.2607316970825,13.2693939208984,13.2780675888062,13.2867527008057,13.295449256897,13.3041572570801,13.312876701355,13.3216075897217,13.3303499221802,13.3391036987305,13.3478689193726,13.3566455841064,13.3654336929321,13.3742332458496,13.3830451965332,13.3918685913086,13.4007034301758,13.4095497131348,13.4184074401855,13.4272775650024,13.4361581802368,13.4450521469116,13.4539566040039,13.4628744125366,13.4718027114868,13.4807434082031,13.4896955490112,13.4986600875854,13.5076360702515,13.5166244506836,13.5256242752075,13.5346364974976,13.5436611175537,13.5526971817017,13.5617456436157,13.5708055496216,13.5798778533936,13.5889625549316,13.5980596542358,13.6071681976318,13.6162900924683,13.6254234313965,13.6345682144165,13.643726348877,13.6528968811035,13.6620798110962,13.6712741851807,13.6804819107056,13.6897010803223,13.6989336013794,13.7081785202026,13.717435836792,13.7267055511475,13.735987663269,13.7452821731567,13.7545900344849,13.7639093399048,13.7732419967651,13.7825880050659,13.7919454574585,13.8013162612915,13.8106994628906,13.8200960159302,13.8295049667358,13.8389263153076,13.8483610153198,13.8578081130981,13.8672685623169,13.8767423629761,13.8862285614014,13.8957281112671,13.9052400588989,13.9147653579712,13.9243040084839,13.9338550567627,13.9434194564819,13.9529972076416,13.9625883102417,13.9721927642822,13.9818096160889,13.9914398193359,14.0010843276978,14.0107412338257,14.020411491394,14.0300951004028,14.0397930145264,14.049503326416,14.0592269897461,14.0689649581909,14.0787162780762,14.0884799957275,14.0982580184937,14.1080503463745,14.1178550720215,14.1276741027832,14.1375064849854,14.1473531723022,14.1572132110596,14.1670866012573,14.1769742965698,14.1868753433228,14.1967906951904,14.2067203521729,14.2166633605957,14.226619720459,14.2365913391113,14.2465753555298,14.2565746307373,14.2665872573853,14.2766141891479,14.2866554260254,14.2967109680176,14.3067798614502,14.3168640136719,14.326961517334,14.3370733261108,14.6931428909302,15.0774345397949,15.4823684692383,15.7715244293213,15.7790126800537,15.786509513855,15.7940149307251,15.8015270233154,15.8090467453003,15.8165740966797,15.8241081237793,15.8316497802734,15.8391981124878,15.8467540740967,15.8543167114258,15.8618869781494,15.8694639205933,15.8770484924316,15.8846406936646,16.0367221832275,16.9098720550537,0,0,0,0,0,0,0,0,0,0,0,0,0,0,0,0,0,0,0,0,0,0,0,0,0,0,0,0,0,0,0,0,0,0,0,0,0,0,0,0,0,0,0,0,0,0,0,0,0,0,0,0,0,0
11.5754728317261,11.5757389068604,11.5760049819946,11.5762710571289,11.5765361785889,11.5768022537231,11.5770683288574,11.5773344039917,11.577600479126,11.5778656005859,11.5781316757202,11.5783977508545,11.5786638259888,11.578929901123,11.5791959762573,11.5794620513916,11.5797281265259,11.5799942016602,11.5802602767944,11.5805263519287,11.6314477920532,11.688588142395,11.7462902069092,11.8045654296875,11.8634214401245,11.9228677749634,11.9829130172729,12.0435657501221,12.1048355102539,12.1667318344116,12.2292642593384,12.2924432754517,12.3562784194946,12.4207792282104,12.4859580993652,12.5518236160278,12.6183881759644,12.6856632232666,12.7536582946777,12.8223867416382,12.8918600082397,12.9621086120605,13.0331363677979,13.1049461364746,13.1171569824219,13.1256322860718,13.1341190338135,13.142617225647,13.1511259078979,13.1596460342407,13.168176651001,13.176718711853,13.1852722167969,13.1938362121582,13.2024116516113,13.2109975814819,13.2195949554443,13.2282037734985,13.2368240356445,13.2454557418823,13.2540979385376,13.2627515792847,13.2714176177979,13.2800931930542,13.2887811660767,13.2974805831909,13.3061904907227,13.3149127960205,13.3236465454102,13.3323917388916,13.3411474227905,13.3499155044556,13.3586950302124,13.367486000061,13.3762884140015,13.385103225708,13.393928527832,13.4027662277222,13.4116153717041,13.4204759597778,13.4293489456177,13.438232421875,13.4471292495728,13.456036567688,13.4649562835693,13.4738874435425,13.4828310012817,13.4917860031128,13.50075340271,13.5097322463989,13.518723487854,13.5277261734009,13.5367412567139,13.545768737793,13.5548076629639,13.5638580322266,13.5729217529297,13.5819969177246,13.5910844802856,13.6001834869385,13.6092958450317,13.6184196472168,13.627555847168,13.6367044448853,13.6458654403687,13.6550388336182,13.6642246246338,13.6734218597412,13.6826324462891,13.6918544769287,13.7010898590088,13.710337638855,13.7195978164673,13.7288703918457,13.7381553649902,13.7474527359009,13.756763458252,13.7660865783691,13.7754220962524,13.7847700119019,13.7941312789917,13.8035049438477,13.8128910064697,13.8222904205322,13.8317022323608,13.8411264419556,13.850564956665,13.8600149154663,13.869478225708,13.8789548873901,13.8884439468384,13.8979463577271,13.9074621200562,13.9169902801514,13.926531791687,13.9360857009888,13.9456539154053,13.9552345275879,13.9648284912109,13.9744358062744,13.984055519104,13.9936895370483,14.0033359527588,14.012996673584,14.0226697921753,14.0323572158813,14.0420570373535,14.0517711639404,14.0614986419678,14.0712385177612,14.0809926986694,14.0907611846924,14.1005420684814,14.1103372573853,14.1201457977295,14.1299676895142,14.1398029327393,14.1496524810791,14.1595163345337,14.1693925857544,14.1792840957642,14.18918800354,14.199107170105,14.209038734436,14.2189855575562,14.2289457321167,14.2389192581177,14.2489080429077,14.2589101791382,14.2689256668091,14.278956413269,14.2890005111694,14.596923828125,14.9761343002319,15.3755731582642,15.7969026565552,15.8183574676514,15.8258934020996,15.8334360122681,15.8409862518311,15.8485441207886,15.8561086654663,15.8636798858643,15.8712596893311,15.8788461685181,15.8864393234253,15.8940401077271,15.9016485214233,15.9092636108398,15.9168863296509,16.1609497070312,17.0104351043701,0,0,0,0,0,0,0,0,0,0,0,0,0,0,0,0,0,0,0,0,0,0,0,0,0,0,0,0,0,0,0,0,0,0,0,0,0,0,0,0,0,0,0,0,0,0,0,0,0,0,0,0,0
