8.35683155059814,8.35681343078613,8.3567943572998,8.35677623748779,8.35675716400146,8.35673904418945,8.35671997070312,8.35670185089111,8.35668277740479,8.35666465759277,8.35664558410645,8.35662651062012,8.35660839080811,8.35658931732178,8.35657119750977,8.35655212402344,8.35653400421143,8.3565149307251,8.35649681091309,8.35647773742676,8.35645961761475,8.35644054412842,8.35642242431641,8.35640335083008,8.35638523101807,8.35636615753174,8.35634708404541,8.3563289642334,8.35630989074707,8.35629177093506,8.35627269744873,8.35625457763672,8.35623550415039,8.35621738433838,8.35619831085205,8.35618019104004,8.35616111755371,8.3561429977417,8.35612392425537,8.35610580444336,8.35608673095703,8.3560676574707,8.35604953765869,8.35603046417236,8.35601234436035,8.35599327087402,8.35597515106201,8.35595607757568,8.35593795776367,8.35591888427734,8.35590076446533,8.355881690979,8.38325309753418,8.41295337677002,8.4428653717041,8.47299098968506,8.50333213806152,8.53389072418213,8.56467056274414,8.59567260742188,8.6269006729126,8.65835571289062,8.69004154205322,8.72196197509766,8.75411796569824,8.78651142120361,8.81914615631104,8.85202312469482,8.88514709472656,8.91851902008057,8.9521427154541,8.98602199554443,9.02015781402588,9.0545539855957,9.08921337127686,9.1241397857666,9.15933513641357,9.19480228424072,9.23054599761963,9.26656913757324,9.30287456512451,9.33946418762207,9.37634372711182,9.4135160446167,9.45098400115967,9.48875141143799,9.52682209014893,9.56519889831543,9.60388660430908,9.64288806915283,9.68220806121826,9.72184944152832,9.76181697845459,9.80211544036865,9.84274673461914,9.88371658325195,9.92502975463867,9.96668910980225,10.0280532836914,10.028977394104,10.0716094970703,10.1146068572998,10.1579723358154,10.2017107009888,10.2458276748657,10.2903289794922,10.3352174758911,10.3804988861084,10.4261798858643,10.472264289856,10.5187549591064,10.5656585693359,10.6129817962646,10.6264295578003,10.6279916763306,10.6295499801636,10.6311140060425,10.6326742172241,10.6342344284058,10.6357975006104,10.6373605728149,10.6389226913452,10.6404876708984,10.642050743103,10.6436166763306,10.6451816558838,10.6467447280884,10.6483144760132,10.6498794555664,10.6514482498169,10.6530160903931,10.6545848846436,10.6561498641968,10.6577196121216,10.6592893600464,10.6608610153198,10.6624298095703,10.6639995574951,10.6655712127686,10.6671409606934,10.6687126159668,10.6702861785889,10.6718587875366,10.6734323501587,10.6750068664551,10.6765804290771,10.6781568527222,10.6797313690186,10.6813049316406,10.6828832626343,10.6844606399536,10.6860370635986,10.6876153945923,10.6891937255859,10.6907730102539,10.6923513412476,10.6939296722412,10.6955127716064,10.6970911026001,10.6986703872681,10.7002553939819,10.7018346786499,10.7034149169922,10.7050008773804,10.706582069397,10.7081689834595,10.7097511291504,10.7113342285156,10.7129211425781,10.7145051956177,10.7160930633545,10.717679977417,10.7192659378052,10.7208557128906,10.7224416732788,10.724027633667,10.7256193161011,10.7272090911865,10.7287969589233,10.7303876876831,10.7319774627686,10.7335681915283,10.7351608276367,10.7367544174194,10.7383489608765,10.7399396896362,10.7415323257446,10.7431268692017,10.7447195053101,10.7463159561157,10.7479133605957,10.7495098114014,10.7511043548584,10.752703666687,10.754301071167,10.755898475647,10.757495880127,10.7590951919556,10.7606935501099,10.7622938156128,10.7638931274414,10.7654943466187,10.7670955657959,10.7686996459961,10.7703008651733,10.7719020843506,10.7735061645508,10.7751083374023,10.7767114639282,10.7783184051514,10.7799224853516,10.7815256118774,10.7831363677979,10.784740447998,10.7863492965698,10.7879571914673,10.7895612716675,10.7911720275879,10.7927808761597,10.7943868637085,10.7959995269775,10.7976102828979,10.7992210388184,10.8008317947388,10.8024425506592,10.8040561676025,10.8056688308716,10.807279586792,10.808895111084,10.8105087280273,10.812123298645,10.8137369155884,10.8153524398804,10.8169736862183,10.8185892105103,10.8202028274536,10.8218221664429,10.8234405517578,10.8250579833984,10.826678276062,10.8282976150513,10.8299179077148,10.8315372467041,10.8331575393677,10.8347797393799,10.8364000320435,10.838020324707,10.8396463394165,10.8412685394287,10.8428916931152,10.8445177078247,10.8461408615112,10.8477687835693,10.8493957519531,10.8510208129883,10.8526458740234,10.8542747497559,10.8559007644653,10.8575305938721,10.8591575622559,10.8607902526855,10.8624181747437,10.8640470504761,10.8656787872314,10.8673095703125
8.3569278717041,8.35690879821777,8.35688972473145,8.35687160491943,8.35685253143311,8.35683441162109,8.35681533813477,8.35679721832275,8.35677814483643,8.35676002502441,8.35674095153809,8.35672283172607,8.35670375823975,8.35668563842773,8.35666656494141,8.35664844512939,8.35662937164307,8.35661029815674,8.35659217834473,8.3565731048584,8.35655498504639,8.35653591156006,8.35651779174805,8.35649871826172,8.35648059844971,8.35646152496338,8.35644340515137,8.35642433166504,8.35640621185303,8.3563871383667,8.35636806488037,8.35634994506836,8.35633087158203,8.35631275177002,8.35629367828369,8.35627555847168,8.35625648498535,8.35623836517334,8.35621929168701,8.356201171875,8.35618209838867,8.35616397857666,8.35614490509033,8.35612678527832,8.35610771179199,8.35608863830566,8.35607051849365,8.35605144500732,8.35603332519531,8.35601425170898,8.35599613189697,8.35597705841064,8.38361835479736,8.41332149505615,8.44323635101318,8.47336387634277,8.50370788574219,8.53426933288574,8.5650520324707,8.59605693817139,8.62728786468506,8.65874576568604,8.6904354095459,8.72235870361328,8.7545166015625,8.78691387176514,8.81955051422119,8.85243129730225,8.88555812835693,8.9189338684082,8.95256042480469,8.98644256591797,9.02058124542236,9.05498123168945,9.08964347839355,9.12457275390625,9.15977191925049,9.1952428817749,9.23099040985107,9.26701641082764,9.30332469940186,9.339919090271,9.37680244445801,9.41397762298584,9.45144939422607,9.48922061920166,9.52729415893555,9.56567573547363,9.60436725616455,9.64337253570557,9.68269634246826,9.7223424911499,9.76231384277344,9.80261516571045,9.84325122833252,9.88422584533691,9.9255428314209,9.96720600128174,10.0281686782837,10.0295057296753,10.0721426010132,10.1151437759399,10.1585140228271,10.2022581100464,10.2463798522949,10.2908849716187,10.3357782363892,10.3810653686523,10.4267511367798,10.4728355407715,10.497031211853,10.4985542297363,10.5000762939453,10.5015983581543,10.5031223297119,10.5046463012695,10.5061721801758,10.507698059082,10.5092220306396,10.5107479095459,10.5122766494751,10.5137987136841,10.5153274536133,10.5168571472168,10.5183839797974,10.5199108123779,10.5214414596558,10.522970199585,10.5245008468628,10.5260314941406,10.5275621414185,10.5290946960449,10.5306262969971,10.5321550369263,10.5336894989014,10.5352230072021,10.5367584228516,10.538290977478,10.5398244857788,10.5413599014282,10.5428953170776,10.5444288253784,10.5459680557251,10.5475034713745,10.5490369796753,10.5505771636963,10.5521144866943,10.5536527633667,10.5551919937134,10.5567302703857,10.5582723617554,10.5598125457764,10.5613508224487,10.5628929138184,10.5644330978394,10.5659770965576,10.5675191879272,10.5690612792969,10.5706043243408,10.5721483230591,10.573691368103,10.5752382278442,10.5767822265625,10.5783271789551,10.5798740386963,10.5814189910889,10.5829677581787,10.5845146179199,10.5860614776611,10.587610244751,10.5891590118408,10.590708732605,10.5922584533691,10.593807220459,10.5953607559204,10.5969123840332,10.598461151123,10.6000156402588,10.6015663146973,10.6031179428101,10.6046724319458,10.6062240600586,10.6077795028687,10.6093339920044,10.6108894348145,10.6124458312988,10.6140012741089,10.6155557632446,10.6171159744263,10.6186723709106,10.6202278137207,10.621787071228,10.6233472824097,10.6249074935913,10.6264657974243,10.6280250549316,10.6295852661133,10.6311473846436,10.6327085494995,10.6342697143555,10.6358327865601,10.6373949050903,10.6389579772949,10.6405210494995,10.6420869827271,10.643651008606,10.6452150344849,10.6467838287354,10.6483478546143,10.6499128341675,10.6514825820923,10.6530475616455,10.6546192169189,10.6561889648438,10.6577548980713,10.6593246459961,10.6608943939209,10.6624622344971,10.6640357971191,10.6656064987183,10.6671762466431,10.6687488555908,10.6703205108643,10.6718950271606,10.6734685897827,10.6750392913818,10.6766157150269,10.6781921386719,10.6797647476196,10.6813430786133,10.6829175949097,10.6844930648804,10.6860733032227,10.687650680542,10.6892290115356,10.6908082962036,10.6923847198486,10.6939668655396,10.6955451965332,10.6971244812012,10.6987075805664,10.7002868652344,10.7018709182739,10.7034521102905,10.7050352096558,10.7066192626953,10.7082004547119,10.7097845077515,10.7113704681396,10.7129554748535,10.7145414352417,10.7161273956299,10.7177114486694,10.7193002700806,10.720890045166,10.7224779129028,10.7240648269653,10.7256526947021,10.7272424697876,10.728835105896,10.7304220199585,10.7320146560669,10.7336053848267,10.7351970672607,10.7367887496948
8.35702323913574,8.35700416564941,8.3569860458374,8.35696697235107,8.35694885253906,8.35692977905273,8.35691165924072,8.35689258575439,8.35687351226807,8.35685539245605,8.35683631896973,8.35681819915771,8.35679912567139,8.35678100585938,8.35676193237305,8.35674381256104,8.35672473907471,8.3567066192627,8.35668754577637,8.35666942596436,8.35665035247803,8.3566312789917,8.35661315917969,8.35659408569336,8.35657596588135,8.35655689239502,8.35653877258301,8.35651969909668,8.35650157928467,8.35648250579834,8.35646438598633,8.3564453125,8.35642719268799,8.35640811920166,8.35638999938965,8.35637092590332,8.35635185241699,8.35633373260498,8.35631465911865,8.35629653930664,8.35627746582031,8.3562593460083,8.35624027252197,8.35622215270996,8.35620307922363,8.35618495941162,8.35616588592529,8.35614776611328,8.35612869262695,8.35611057281494,8.35609149932861,8.35607242584229,8.38398361206055,8.41368961334229,8.44360637664795,8.4737377166748,8.50408363342285,8.53464794158936,8.56543350219727,8.5964412689209,8.6276741027832,8.65913581848145,8.69082927703857,8.72275543212891,8.75491619110107,8.78731632232666,8.81995582580566,8.85283946990967,8.8859691619873,8.91934776306152,8.95297813415527,8.9868631362915,9.02100563049316,9.0554084777832,9.09007453918457,9.12500667572021,9.1602087020874,9.19568347930908,9.2314338684082,9.26746368408203,9.30377578735352,9.34037399291992,9.37726020812988,9.41443920135498,9.45191478729248,9.48968982696533,9.52776718139648,9.56615161895752,9.6048469543457,9.6438570022583,9.68318462371826,9.72283458709717,9.76281070709229,9.80311584472656,9.84375667572021,9.88473510742188,9.92605590820312,9.96772384643555,10.0282831192017,10.0300340652466,10.0726757049561,10.1156816482544,10.1590557098389,10.2028045654297,10.2469310760498,10.2914409637451,10.3363389968872,10.3707466125488,10.3722314834595,10.3737192153931,10.3752088546753,10.3766927719116,10.3781814575195,10.3796691894531,10.3811569213867,10.3826446533203,10.3841352462769,10.3856248855591,10.3871145248413,10.3886060714722,10.3900966644287,10.3915901184082,10.3930788040161,10.3945722579956,10.3960647583008,10.3975553512573,10.3990535736084,10.4005441665649,10.4020385742188,10.4035367965698,10.4050312042236,10.4065265655518,10.4080247879028,10.4095191955566,10.4110164642334,10.4125146865845,10.4140100479126,10.415509223938,10.4170083999634,10.4185066223145,10.4200077056885,10.4215068817139,10.4230079650879,10.4245100021362,10.4260091781616,10.4275121688843,10.4290142059326,10.4305152893066,10.4320192337036,10.4335241317749,10.4350280761719,10.4365339279175,10.4380378723145,10.4395399093628,10.441047668457,10.4425535202026,10.4440612792969,10.4455671310425,10.4470739364624,10.4485836029053,10.4500904083252,10.4515981674194,10.4531087875366,10.4546175003052,10.456127166748,10.4576396942139,10.4591484069824,10.4606628417969,10.4621734619141,10.4636840820312,10.4651975631714,10.4667119979858,10.4682235717773,10.4697399139404,10.4712533950806,10.4727687835693,10.4742851257324,10.4757986068726,10.47731590271,10.4788312911987,10.4803485870361,10.4818658828735,10.4833850860596,10.484902381897,10.4864206314087,10.4879398345947,10.4894599914551,10.4909811019897,10.4924993515015,10.4940214157104,10.4955425262451,10.4970626831055,10.4985876083374,10.500111579895,10.5016355514526,10.503155708313,10.5046796798706,10.5062065124512,10.5077304840088,10.5092554092407,10.5107831954956,10.5123081207275,10.5138339996338,10.5153617858887,10.5168895721436,10.5184183120728,10.5199460983276,10.5214738845825,10.5230054855347,10.5245342254639,10.5260639190674,10.5275964736938,10.5291261672974,10.5306596755981,10.5321922302246,10.5337238311768,10.5352573394775,10.5367908477783,10.5383243560791,10.5398578643799,10.5413932800293,10.5429267883301,10.5444650650024,10.5459985733032,10.5475368499756,10.5490741729736,10.5506086349487,10.5521488189697,10.5536880493164,10.5552244186401,10.5567646026611,10.5583047866821,10.5598459243774,10.5613880157471,10.5629281997681,10.5644693374634,10.566011428833,10.567551612854,10.5690965652466,10.5706377029419,10.5721826553345,10.5737276077271,10.5752716064453,10.5768175125122,10.5783615112305,10.579906463623,10.5814542770386,10.5830011367798,10.5845489501953,10.5860958099365,10.5876436233521,10.5891942977905,10.5907421112061,10.5922899246216,10.593843460083,10.5953931808472,10.5969467163086,10.5984964370728,10.6000490188599,10.601598739624,10.6031522750854,10.6047058105469,10.6062602996826,10.6078147888184,10.6093683242798
8.35711860656738,8.35709953308105,8.35708141326904,8.35706233978271,8.3570442199707,8.35702514648438,8.35700702667236,8.35698795318604,8.35696983337402,8.3569507598877,8.35693264007568,8.35691356658936,8.35689449310303,8.35687637329102,8.35685729980469,8.35683917999268,8.35682010650635,8.35680198669434,8.35678291320801,8.356764793396,8.35674571990967,8.35672760009766,8.35670852661133,8.35669040679932,8.35667133331299,8.35665321350098,8.35663414001465,8.35661506652832,8.35659694671631,8.35657787322998,8.35655975341797,8.35654067993164,8.35652256011963,8.3565034866333,8.35648536682129,8.35646629333496,8.35644817352295,8.35642910003662,8.35641098022461,8.35639190673828,8.35637378692627,8.35635471343994,8.35633563995361,8.3563175201416,8.35629844665527,8.35628032684326,8.35626125335693,8.35624313354492,8.35622406005859,8.35620594024658,8.35618686676025,8.35616874694824,8.38434886932373,8.41405773162842,8.44397735595703,8.47411060333252,8.50445938110352,8.53502655029297,8.56581497192383,8.59682559967041,8.62806129455566,8.65952682495117,8.69122219085693,8.72315120697021,8.75531578063965,8.78771781921387,8.82036113739014,8.85324764251709,8.88638019561768,8.91976261138916,8.95339584350586,8.98728370666504,9.02142906188965,9.05583572387695,9.09050464630127,9.12544059753418,9.16064643859863,9.19612407684326,9.23187828063965,9.26791095733643,9.30422687530518,9.34082794189453,9.37771797180176,9.41490173339844,9.45238018035889,9.490159034729,9.52824020385742,9.56662845611572,9.60532760620117,9.64434146881104,9.68367290496826,9.72332668304443,9.76330661773682,9.80361652374268,9.84426116943359,9.88524341583252,9.92656898498535,9.96824169158936,10.0283975601196,10.0305624008179,10.0732088088989,10.1162185668945,10.1595983505249,10.203351020813,10.2474822998047,10.2489128112793,10.2503662109375,10.2518157958984,10.2532682418823,10.2547225952148,10.2561731338501,10.2576274871826,10.2590808868408,10.260534286499,10.2619895935059,10.2634449005127,10.2648992538452,10.2663564682007,10.2678108215332,10.269268989563,10.2707262039185,10.272180557251,10.2736406326294,10.2750988006592,10.2765560150146,10.2780151367188,10.2794771194458,10.2809352874756,10.282395362854,10.2838554382324,10.2853202819824,10.2867794036865,10.2882413864136,10.2897062301636,10.2911672592163,10.292631149292,10.2940940856934,10.2955570220947,10.2970237731934,10.2984867095947,10.2999515533447,10.301417350769,10.302882194519,10.3043489456177,10.3058166503906,10.3072834014893,10.3087530136108,10.3102207183838,10.3116874694824,10.3131589889526,10.3146286010742,10.3160982131958,10.317569732666,10.3190402984619,10.3205089569092,10.3219814300537,10.3234548568726,10.3249254226685,10.3264007568359,10.3278732299805,10.3293476104736,10.3308191299438,10.3322916030884,10.3337697982788,10.335244178772,10.3367204666138,10.3381948471069,10.3396711349487,10.3411493301392,10.342625617981,10.3441028594971,10.3455858230591,10.3470621109009,10.3485403060913,10.350022315979,10.3515005111694,10.3529834747314,10.3544607162476,10.3559436798096,10.3574247360229,10.3589057922363,10.360390663147,10.3618745803833,10.3633556365967,10.3648414611816,10.3663244247437,10.36780834198,10.3692951202393,10.3707790374756,10.3722648620605,10.3737506866455,10.3752365112305,10.3767261505127,10.3782138824463,10.3797035217285,10.3811902999878,10.38267993927,10.3841676712036,10.3856582641602,10.3871488571167,10.3886384963989,10.3901290893555,10.3916206359863,10.3931112289429,10.3946056365967,10.3960962295532,10.3975915908813,10.3990840911865,10.4005784988403,10.4020738601685,10.4035663604736,10.4050607681274,10.4065599441528,10.408055305481,10.4095544815063,10.4110488891602,10.4125461578369,10.4140453338623,10.4155426025391,10.4170417785645,10.4185419082642,10.4200401306152,10.4215383529663,10.4230422973633,10.4245405197144,10.4260454177856,10.427544593811,10.4290456771851,10.4305505752563,10.4320516586304,10.4335556030273,10.4350614547729,10.4365634918213,10.4380702972412,10.4395761489868,10.4410820007324,10.4425888061523,10.4440946578979,10.4455995559692,10.4471101760864,10.448616027832,10.450122833252,10.4516334533691,10.4531421661377,10.4546527862549,10.4561614990234,10.4576721191406,10.4591836929321,10.4606943130493,10.4622049331665,10.4637184143066,10.4652309417725,10.4667444229126,10.4682569503784,10.4697732925415,10.4712886810303,10.4728012084961,10.4743165969849,10.4758329391479,10.4773483276367,10.4788637161255,10.4803829193115,10.4818992614746,10.4834184646606,10.4849367141724
8.35721397399902,8.35719585418701,8.35717678070068,8.35715866088867,8.35713958740234,8.35712051391602,8.357102394104,8.35708332061768,8.35706520080566,8.35704612731934,8.35702800750732,8.357008934021,8.35699081420898,8.35697174072266,8.35695362091064,8.35693454742432,8.3569164276123,8.35689735412598,8.35687828063965,8.35686016082764,8.35684108734131,8.3568229675293,8.35680389404297,8.35678577423096,8.35676670074463,8.35674858093262,8.35672950744629,8.35671138763428,8.35669231414795,8.35667419433594,8.35665512084961,8.35663604736328,8.35661792755127,8.35659885406494,8.35658073425293,8.3565616607666,8.35654354095459,8.35652446746826,8.35650634765625,8.35648727416992,8.35646915435791,8.35645008087158,8.35643196105957,8.35641288757324,8.35639476776123,8.3563756942749,8.35635662078857,8.35633850097656,8.35631942749023,8.35630130767822,8.35628223419189,8.35626411437988,8.38471508026123,8.41442584991455,8.44434833526611,8.47448444366455,8.5048360824585,8.5354061126709,8.56619644165039,8.59720993041992,8.62844848632812,8.65991687774658,8.69161605834961,8.72354793548584,8.75571537017822,8.78812026977539,8.82076644897461,8.85365676879883,8.88679218292236,8.92017650604248,8.95381355285645,8.98770427703857,9.02185344696045,9.0562629699707,9.09093475341797,9.12587451934814,9.16108322143555,9.19656467437744,9.23232269287109,9.26835918426514,9.30467796325684,9.34128284454346,9.37817668914795,9.41536331176758,9.45284557342529,9.49062824249268,9.52871322631836,9.56710529327393,9.60580825805664,9.64482593536377,9.68416118621826,9.72381973266602,9.76380348205566,9.80411720275879,9.84476566314697,9.88575267791748,9.92708206176758,9.96875953674316,10.0285120010376,10.0310907363892,10.0737409591675,10.116756439209,10.1284961700439,10.1299114227295,10.1313285827637,10.1327457427979,10.134162902832,10.1355838775635,10.137001991272,10.1384229660034,10.1398448944092,10.141263961792,10.1426858901978,10.1441068649292,10.1455268859863,10.1469507217407,10.1483726501465,10.1497945785522,10.1512184143066,10.152642250061,10.1540660858154,10.1554918289185,10.1569156646729,10.1583404541016,10.1597661972046,10.161190032959,10.162618637085,10.1640434265137,10.1654739379883,10.1669015884399,10.1683301925659,10.1697597503662,10.1711874008179,10.1726160049438,10.1740465164185,10.1754751205444,10.1769046783447,10.1783390045166,10.1797676086426,10.1812028884888,10.1826314926147,10.1840629577637,10.1854982376099,10.1869316101074,10.1883640289307,10.1897983551025,10.1912326812744,10.1926670074463,10.1941022872925,10.1955375671387,10.1969766616821,10.1984128952026,10.1998481750488,10.201286315918,10.2027235031128,10.2041616439819,10.2056007385254,10.2070388793945,10.2084808349609,10.2099189758301,10.2113571166992,10.2128009796143,10.214241027832,10.2156810760498,10.2171239852905,10.2185640335083,10.2200088500977,10.2214508056641,10.2228937149048,10.2243375778198,10.2257823944092,10.2272272109985,10.2286758422852,10.2301168441772,10.2315626144409,10.2330121994019,10.2344570159912,10.2359056472778,10.2373514175415,10.2387981414795,10.2402486801147,10.2416963577271,10.243143081665,10.2445945739746,10.2460460662842,10.2474956512451,10.2489471435547,10.2503957748413,10.2518491744995,10.2533006668091,10.2547512054443,10.2562046051025,10.2576580047607,10.2591123580933,10.2605686187744,10.2620220184326,10.2634782791138,10.2649335861206,10.2663879394531,10.2678461074829,10.2693004608154,10.2707567214966,10.2722148895264,10.2736730575562,10.2751331329346,10.2765893936157,10.2780485153198,10.2795085906982,10.2809677124023,10.2824258804321,10.2838888168335,10.2853498458862,10.2868118286133,10.2882747650146,10.289737701416,10.2912015914917,10.2926616668701,10.2941246032715,10.2955904006958,10.2970552444458,10.2985191345215,10.2999839782715,10.3014507293701,10.3029146194458,10.3043823242188,10.3058490753174,10.3073177337646,10.3087844848633,10.3102540969849,10.3117227554321,10.3131914138794,10.3146591186523,10.3161296844482,10.3176012039185,10.319073677063,10.3205432891846,10.3220138549805,10.3234882354736,10.3249597549438,10.3264322280884,10.3279066085815,10.3293790817261,10.3308534622192,10.3323278427124,10.3338003158569,10.335277557373,10.3367538452148,10.3382263183594,10.3397073745728,10.3411817550659,10.3426580429077,10.3441371917725,10.3456144332886,10.347095489502,10.3485746383667,10.3500537872314,10.3515357971191,10.3530149459839,10.3544940948486,10.3559770584106,10.3574590682983,10.3589401245117,10.3604230880737,10.3619050979614,10.3633890151978
8.35730934143066,8.35729122161865,8.35727214813232,8.35725402832031,8.35723495483398,8.35721683502197,8.35719776153564,8.35717964172363,8.3571605682373,8.35714149475098,8.35712337493896,8.35710430145264,8.35708618164062,8.3570671081543,8.35704898834229,8.35702991485596,8.35701179504395,8.35699272155762,8.35697460174561,8.35695552825928,8.35693740844727,8.35691833496094,8.35690021514893,8.3568811416626,8.35686206817627,8.35684394836426,8.35682487487793,8.35680675506592,8.35678768157959,8.35676956176758,8.35675048828125,8.35673236846924,8.35671329498291,8.3566951751709,8.35667610168457,8.35665798187256,8.35663890838623,8.3566198348999,8.35660171508789,8.35658264160156,8.35656452178955,8.35654544830322,8.35652732849121,8.35650825500488,8.35649013519287,8.35647106170654,8.35645294189453,8.3564338684082,8.35641574859619,8.35639667510986,8.35637855529785,8.35635948181152,8.38508033752441,8.41479396820068,8.4447193145752,8.47485733032227,8.50521183013916,8.53578472137451,8.56657791137695,8.59759426116943,8.6288366317749,8.66030788421631,8.69200992584229,8.72394466400146,8.7561149597168,8.78852272033691,8.82117176055908,8.85406494140625,8.88720321655273,8.92059135437012,8.95423126220703,8.98812580108643,9.02227687835693,9.05669021606445,9.09136581420898,9.12630844116211,9.16152095794678,9.19700527191162,9.23276615142822,9.26880645751953,9.3051290512085,9.34173679351807,9.37863445281982,9.41582489013672,9.4533109664917,9.49109745025635,9.5291862487793,9.56758213043213,9.60628890991211,9.6453104019165,9.68465042114258,9.72431182861328,9.76430034637451,9.8046178817749,9.84527111053467,9.88626194000244,9.92759609222412,9.96927642822266,10.009485244751,10.0108728408813,10.0122537612915,10.0136404037476,10.0150260925293,10.0164108276367,10.0177965164185,10.0191860198975,10.0205698013306,10.0219564437866,10.0233449935913,10.0247325897217,10.0261240005493,10.0275135040283,10.0288991928101,10.0302906036377,10.031681060791,10.03307056427,10.034462928772,10.0358505249023,10.0372428894043,10.0386352539062,10.0400285720825,10.0414209365845,10.0428133010864,10.0442056655884,10.045599937439,10.0469942092896,10.0483865737915,10.049783706665,10.0511779785156,10.0525760650635,10.0539693832397,10.0553684234619,10.0567665100098,10.0581617355347,10.0595598220825,10.0609588623047,10.0623559951782,10.063756942749,10.0651540756226,10.0665550231934,10.0679559707642,10.0693550109863,10.0707550048828,10.0721559524536,10.0735578536987,10.0749588012695,10.076361656189,10.0777635574341,10.0791673660278,10.0805711746216,10.081974029541,10.0833806991577,10.0847854614258,10.0861902236938,10.0875959396362,10.08899974823,10.090407371521,10.091814994812,10.0932197570801,10.0946292877197,10.0960359573364,10.0974454879761,10.0988540649414,10.1002607345581,10.1016702651978,10.1030807495117,10.1044912338257,10.105902671814,10.1073131561279,10.1087226867676,10.1101360321045,10.1115484237671,10.1129598617554,10.1143760681152,10.1157875061035,10.1171998977661,10.1186151504517,10.1200284957886,10.1214456558228,10.122859954834,10.1242771148682,10.1256923675537,10.1271085739136,10.1285247802734,10.1299409866333,10.1313600540161,10.1327781677246,10.1341953277588,10.1356143951416,10.1370344161987,10.1384544372559,10.1398735046387,10.1412935256958,10.1427173614502,10.1441354751587,10.1455612182617,10.1469812393188,10.1484060287476,10.1498279571533,10.1512498855591,10.1526756286621,10.1540975570679,10.1555223464966,10.1569471359253,10.1583709716797,10.1597995758057,10.1612224578857,10.1626501083374,10.1640768051147,10.1655044555664,10.1669321060181,10.1683597564697,10.1697883605957,10.171215057373,10.1726484298706,10.1740770339966,10.1755065917969,10.1769371032715,10.1783685684204,10.179801940918,10.1812324523926,10.1826620101929,10.1840953826904,10.185528755188,10.1869640350342,10.1883955001831,10.189829826355,10.1912651062012,10.1927003860474,10.1941347122192,10.1955699920654,10.1970062255859,10.1984415054321,10.1998796463013,10.2013177871704,10.2027559280396,10.2041940689087,10.2056322097778,10.2070722579956,10.2085103988647,10.2099504470825,10.2113914489746,10.2128295898438,10.2142734527588,10.2157144546509,10.2171545028687,10.218599319458,10.2200384140015,10.2214822769165,10.2229270935059,10.2243700027466,10.2258129119873,10.2272596359253,10.228702545166,10.2301502227783,10.2315969467163,10.2330417633057,10.234489440918,10.2359371185303,10.2373819351196,10.2388334274292,10.2402791976929,10.2417259216309,10.2431793212891,10.2446269989014
8.35740566253662,8.35738658905029,8.35736751556396,8.35734939575195,8.35733032226562,8.35731220245361,8.35729312896729,8.35727500915527,8.35725593566895,8.35723781585693,8.35721874237061,8.35720062255859,8.35718154907227,8.35716342926025,8.35714435577393,8.3571252822876,8.35710716247559,8.35708808898926,8.35706996917725,8.35705089569092,8.35703277587891,8.35701370239258,8.35699558258057,8.35697650909424,8.35695838928223,8.3569393157959,8.35692119598389,8.35690212249756,8.35688304901123,8.35686492919922,8.35684585571289,8.35682773590088,8.35680866241455,8.35679054260254,8.35677146911621,8.3567533493042,8.35673427581787,8.35671615600586,8.35669708251953,8.35667896270752,8.35665988922119,8.35664176940918,8.35662269592285,8.35660362243652,8.35658550262451,8.35656642913818,8.35654830932617,8.35652923583984,8.35651111602783,8.3564920425415,8.35647392272949,8.35645484924316,8.3854455947876,8.41516208648682,8.44508934020996,8.4752311706543,8.50558757781982,8.53616333007812,8.56695938110352,8.59797859191895,8.62922382354736,8.66069793701172,8.69240283966064,8.72434043884277,8.75651359558105,8.78892517089844,8.82157707214355,8.85447311401367,8.88761520385742,8.92100620269775,8.95464897155762,8.98854637145996,9.02270126342773,9.0571174621582,9.09179592132568,9.12674236297607,9.16195774078369,9.1974458694458,9.23321056365967,9.26925373077393,9.30558013916016,9.34219169616699,9.37909317016602,9.41628646850586,9.45377635955811,9.49156665802002,9.52965927124023,9.56805896759033,9.60677051544189,9.64579486846924,9.68513870239258,9.72480487823486,9.76479721069336,9.80511951446533,9.84577560424805,9.8867712020874,9.89594650268555,9.89729976654053,9.89865493774414,9.90000629425049,9.90136051177979,9.90271759033203,9.90407085418701,9.90542697906494,9.90678215026855,9.90813636779785,9.9094934463501,9.91084957122803,9.91220569610596,9.91356372833252,9.91492366790771,9.91628360748291,9.91763973236084,9.9189977645874,9.92036056518555,9.92171764373779,9.92307662963867,9.92444038391113,9.92579936981201,9.92716121673584,9.92852115631104,9.92988204956055,9.93124675750732,9.93260955810547,9.9339714050293,9.93533420562744,9.93669700622559,9.93806171417236,9.93942642211914,9.9407901763916,9.94215679168701,9.94352436065674,9.94488906860352,9.94625759124756,9.94762325286865,9.94898796081543,9.95035743713379,9.9517240524292,9.95309352874756,9.95446109771729,9.95583057403564,9.95720195770264,9.95856952667236,9.95993709564209,9.96131134033203,9.96268081665039,9.96405029296875,9.96542358398438,9.96679592132568,9.96816921234131,9.96953964233398,9.97091293334961,9.97228908538818,9.97366333007812,9.97503757476807,9.97641181945801,9.97778606414795,9.97916221618652,9.9805383682251,9.98191452026367,9.98329067230225,9.98466777801514,9.98604393005371,9.98742294311523,9.98880100250244,9.99017715454102,9.99155807495117,9.99293518066406,9.99431419372559,9.99569416046143,9.99707508087158,9.99845695495605,9.99983978271484,10.0012187957764,10.0026016235352,10.0039854049683,10.0053663253784,10.0067510604858,10.008131980896,10.0095176696777,10.0109014511108,10.0122861862183,10.013671875,10.0150556564331,10.0164394378662,10.0178289413452,10.019214630127,10.0206022262573,10.0219898223877,10.0233764648438,10.0247640609741,10.0261535644531,10.0275411605835,10.0289316177368,10.0303220748901,10.0317115783691,10.0331020355225,10.0344924926758,10.0358848571777,10.0372753143311,10.0386657714844,10.0400581359863,10.0414505004883,10.0428428649902,10.0442371368408,10.0456295013428,10.0470247268677,10.0484209060669,10.0498123168945,10.0512104034424,10.0526056289673,10.0540008544922,10.0553979873657,10.0567951202393,10.0581922531128,10.059591293335,10.0609884262085,10.0623893737793,10.0637884140015,10.065185546875,10.0665855407715,10.0679845809937,10.0693845748901,10.0707883834839,10.0721874237061,10.0735893249512,10.074990272522,10.0763940811157,10.0777978897095,10.0791997909546,10.0806016921997,10.0820074081421,10.0834093093872,10.0848140716553,10.0862197875977,10.0876264572144,10.0890340805054,10.0904378890991,10.0918445587158,10.0932531356812,10.0946598052979,10.0960674285889,10.0974760055542,10.0988826751709,10.1002941131592,10.1017026901245,10.1031112670898,10.1045236587524,10.1059341430664,10.1073427200317,10.1087560653687,10.1101675033569,10.1115779876709,10.1129913330078,10.1144037246704,10.1158199310303,10.1172332763672,10.1186475753784,10.1200618743896,10.1214771270752,10.1228904724121,10.1243076324463,10.1257228851318,10.127142906189,10.1285562515259
8.35750102996826,8.35748195648193,8.35746383666992,8.35744476318359,8.35742664337158,8.35740756988525,8.35738945007324,8.35737037658691,8.35735130310059,8.35733318328857,8.35731410980225,8.35729598999023,8.35727691650391,8.35725879669189,8.35723972320557,8.35722160339355,8.35720252990723,8.35718441009521,8.35716533660889,8.35714721679688,8.35712814331055,8.35710906982422,8.35709095001221,8.35707187652588,8.35705375671387,8.35703468322754,8.35701656341553,8.3569974899292,8.35697937011719,8.35696029663086,8.35694217681885,8.35692310333252,8.35690498352051,8.35688591003418,8.35686683654785,8.35684871673584,8.35682964324951,8.3568115234375,8.35679244995117,8.35677433013916,8.35675525665283,8.35673713684082,8.35671806335449,8.35669994354248,8.35668087005615,8.35666275024414,8.35664367675781,8.35662460327148,8.35660648345947,8.35658740997314,8.35656929016113,8.3565502166748,8.3858118057251,8.41553020477295,8.44546031951904,8.47560405731201,8.5059642791748,8.53654193878174,8.56734085083008,8.59836292266846,8.62961196899414,8.66108894348145,8.69279670715332,8.7247371673584,8.75691318511963,8.78932762145996,8.82198238372803,8.85488128662109,8.88802623748779,8.92142105102539,8.9550666809082,8.9889669418335,9.02312564849854,9.05754470825195,9.0922269821167,9.12717628479004,9.16239452362061,9.19788646697998,9.2336540222168,9.26970195770264,9.30603122711182,9.34264659881592,9.37955093383789,9.41674900054932,9.45424270629883,9.49203586578369,9.53013229370117,9.56853580474854,9.60725116729736,9.64628028869629,9.68562793731689,9.72529697418213,9.76529312133789,9.78363609313965,9.78495788574219,9.78627967834473,9.7876033782959,9.78892707824707,9.79024887084961,9.79157447814941,9.79289817810059,9.79422283172607,9.79554843902588,9.79687309265137,9.7982006072998,9.79952526092529,9.8008508682251,9.80218124389648,9.80350780487061,9.80483436584473,9.80616474151611,9.80749130249023,9.80882358551025,9.81015205383301,9.81148052215576,9.81281089782715,9.81414031982422,9.81547260284424,9.81680297851562,9.8181324005127,9.81946754455566,9.82079601287842,9.82213020324707,9.82346343994141,9.82479476928711,9.82612800598145,9.82746315002441,9.82879638671875,9.83013153076172,9.83146858215332,9.83280181884766,9.83413982391357,9.83547496795654,9.83681011199951,9.83814811706543,9.83948516845703,9.84082317352295,9.8421630859375,9.8435001373291,9.84483814239502,9.84617805480957,9.84751605987549,9.84885787963867,9.85019588470459,9.85153579711914,9.85287952423096,9.85421943664551,9.85556030273438,9.85690212249756,9.85824394226074,9.85958671569824,9.86092853546143,9.86227512359619,9.86361980438232,9.86496257781982,9.86630630493164,9.86765289306641,9.86899566650391,9.87034225463867,9.87168884277344,9.87303352355957,9.87438011169434,9.87572765350342,9.87707424163818,9.8784236907959,9.8797721862793,9.88111877441406,9.88246822357178,9.88381767272949,9.88516712188721,9.88651561737061,9.88786506652832,9.8892183303833,9.89056968688965,9.891921043396,9.89327430725098,9.89462375640869,9.89597988128662,9.89732933044434,9.89868259429932,9.90003871917725,9.90139198303223,9.90274620056152,9.90410232543945,9.90545654296875,9.90680980682373,9.90816783905029,9.90952396392822,9.91088008880615,9.91223621368408,9.91359424591064,9.91495227813721,9.91631126403809,9.91767120361328,9.91903018951416,9.92038822174072,9.92174911499023,9.92310905456543,9.92446804046631,9.92582988739014,9.92719078063965,9.92855167388916,9.9299144744873,9.93127536773682,9.93263626098633,9.93400096893311,9.93536567687988,9.93672943115234,9.93809223175049,9.93945693969727,9.94082260131836,9.94218730926514,9.94355297088623,9.94491958618164,9.94628524780273,9.94765472412109,9.94902038574219,9.95038604736328,9.95175552368164,9.95312309265137,9.95449066162109,9.95586013793945,9.95722961425781,9.95860004425049,9.95996952056885,9.96133899688721,9.96271324157715,9.96408367156982,9.96545314788818,9.96682739257812,9.96819972991943,9.96957111358643,9.97094440460205,9.97231769561768,9.9736909866333,9.97506904602051,9.97644138336182,9.97781848907471,9.97919273376465,9.98056888580322,9.98194599151611,9.98332023620605,9.98469734191895,9.98607540130615,9.98745250701904,9.98883152008057,9.99020862579346,9.99158763885498,9.9929666519165,9.99434471130371,9.99572372436523,9.99710750579834,9.9984884262085,9.99986743927002,10.0012512207031,10.002631187439,10.0040168762207,10.0053997039795,10.0067796707153,10.0081644058228,10.0095462799072,10.010931968689,10.0123176574707,10.0137014389038,10.0150890350342
8.3575963973999,8.35757732391357,8.35755920410156,8.35754013061523,8.35752201080322,8.35750293731689,8.35748481750488,8.35746574401855,8.35744762420654,8.35742855072021,8.3574104309082,8.35739135742188,8.35737228393555,8.35735416412354,8.35733509063721,8.3573169708252,8.35729789733887,8.35727977752686,8.35726070404053,8.35724258422852,8.35722351074219,8.35720539093018,8.35718631744385,8.35716819763184,8.35714912414551,8.35713005065918,8.35711193084717,8.35709285736084,8.35707473754883,8.3570556640625,8.35703754425049,8.35701847076416,8.35700035095215,8.35698127746582,8.35696315765381,8.35694408416748,8.35692596435547,8.35690689086914,8.35688877105713,8.3568696975708,8.35685062408447,8.35683250427246,8.35681343078613,8.35679531097412,8.35677623748779,8.35675811767578,8.35673904418945,8.35672092437744,8.35670185089111,8.3566837310791,8.35666465759277,8.35666465759277,8.38617706298828,8.41589832305908,8.44583129882812,8.47597789764404,8.50634002685547,8.53692150115967,8.56772232055664,8.59874820709229,8.63000011444092,8.66147994995117,8.693190574646,8.72513389587402,8.7573127746582,8.78973007202148,8.8223876953125,8.85528945922852,8.88843822479248,8.92183494567871,8.95548439025879,8.98938846588135,9.02355003356934,9.0579719543457,9.09265804290771,9.127610206604,9.16283226013184,9.19832706451416,9.23409843444824,9.27014923095703,9.30648231506348,9.34310150146484,9.38000965118408,9.41721057891846,9.45470809936523,9.49250507354736,9.53060531616211,9.56901359558105,9.60773181915283,9.64676475524902,9.6738395690918,9.67513561248779,9.67642784118652,9.67772197723389,9.67901420593262,9.68031024932861,9.68160247802734,9.68289947509766,9.68419361114502,9.68548965454102,9.68678665161133,9.68808269500732,9.68937969207764,9.69067668914795,9.69197273254395,9.69327163696289,9.6945686340332,9.6958646774292,9.69716548919678,9.69846534729004,9.69976425170898,9.7010669708252,9.70236396789551,9.70366764068604,9.70496654510498,9.70626735687256,9.70757007598877,9.70886993408203,9.71017456054688,9.7114782333374,9.71277809143066,9.71408271789551,9.7153844833374,9.71669006347656,9.71799373626709,9.71929740905762,9.72060298919678,9.72191047668457,9.7232141494751,9.72452163696289,9.72582626342773,9.72713375091553,9.72844409942627,9.72974967956543,9.73105621337891,9.73236751556396,9.73367404937744,9.73498249053955,9.73629283905029,9.73760223388672,9.73891353607178,9.74022388458252,9.74153327941895,9.74284648895264,9.74415683746338,9.74546527862549,9.7467794418335,9.74809169769287,9.74940490722656,9.75071811676025,9.75203037261963,9.75334453582764,9.75465965270996,9.75597476959229,9.75728988647461,9.75860500335693,9.75991821289062,9.76123714447021,9.76255035400391,9.76387119293213,9.76518630981445,9.76650428771973,9.76782131195068,9.76913833618164,9.77045726776123,9.77177715301514,9.77309513092041,9.77441596984863,9.77573585510254,9.77705383300781,9.77837753295898,9.77969646453857,9.78101825714111,9.78234100341797,9.78366470336914,9.78498458862305,9.78630828857422,9.78763294219971,9.78895473480225,9.79028034210205,9.79160308837891,9.79292869567871,9.79425144195557,9.79557704925537,9.79690551757812,9.79822826385498,9.7995548248291,9.80088233947754,9.80220985412598,9.80353832244873,9.80486488342285,9.80619335174561,9.80752372741699,9.80885028839111,9.81017780303955,9.81151103973389,9.81283950805664,9.81417083740234,9.81550121307373,9.8168306350708,9.81816387176514,9.81949615478516,9.82082557678223,9.8221607208252,9.8234920501709,9.82482528686523,9.82615852355957,9.82749176025391,9.82882785797119,9.83016300201416,9.83149433135986,9.83283424377441,9.83416748046875,9.8355016708374,9.83684158325195,9.83817768096924,9.83951663970947,9.84085464477539,9.84219074249268,9.84353065490723,9.84486865997314,9.84620666503906,9.84754657745361,9.84888553619385,9.8502254486084,9.85156726837158,9.85290813446045,9.85424995422363,9.8555908203125,9.85693168640137,9.85827350616455,9.85961627960205,9.86095809936523,9.86230373382568,9.86364650726318,9.86499309539795,9.86633777618408,9.86768054962158,9.86902809143066,9.8703727722168,9.87171745300293,9.87306499481201,9.87441158294678,9.87575626373291,9.87710571289062,9.87845230102539,9.87980175018311,9.88114929199219,9.88249683380127,9.88384819030762,9.8851957321167,9.88654708862305,9.88789844512939,9.88924789428711,9.89060020446777,9.89195156097412,9.89330291748047,9.89465713500977,9.89600849151611,9.89736080169678,9.89871501922607,9.90006637573242,9.90142059326172,9.90277671813965,9.90413093566895
8.35769176483154,8.35767364501953,8.3576545715332,8.35763645172119,8.35761737823486,8.35759830474854,8.35758018493652,8.3575611114502,8.35754299163818,8.35752391815186,8.35750579833984,8.35748672485352,8.3574686050415,8.35744953155518,8.35743141174316,8.35741233825684,8.35739421844482,8.3573751449585,8.35735607147217,8.35733795166016,8.35731887817383,8.35730075836182,8.35728168487549,8.35726356506348,8.35724449157715,8.35722637176514,8.35720729827881,8.3571891784668,8.35717010498047,8.35715198516846,8.35713291168213,8.3571138381958,8.35709571838379,8.35707664489746,8.35705852508545,8.35703945159912,8.35702133178711,8.35700225830078,8.35698413848877,8.35696506500244,8.35694694519043,8.3569278717041,8.35690975189209,8.35689067840576,8.35687160491943,8.35685348510742,8.35683441162109,8.35681629180908,8.35679721832275,8.35677909851074,8.35676002502441,8.35702800750732,8.38654232025146,8.41626644134521,8.44620227813721,8.47635173797607,8.50671672821045,8.53730010986328,8.56810474395752,8.59913349151611,8.6303882598877,8.6618709564209,8.69358444213867,8.72553062438965,8.75771236419678,8.79013252258301,8.82279396057129,8.85569858551025,8.88884925842285,8.92224979400635,8.95590209960938,8.98980903625488,9.02397346496582,9.05839920043945,9.09308815002441,9.12804412841797,9.16326999664307,9.19876861572266,9.23454284667969,9.27059650421143,9.30693340301514,9.34355640411377,9.38046836853027,9.4176721572876,9.45517349243164,9.49297428131104,9.53107833862305,9.56648540496826,9.56774806976318,9.56901073455811,9.57028007507324,9.57154655456543,9.5728120803833,9.57407665252686,9.57534122467041,9.57660961151123,9.57787704467773,9.57914352416992,9.58041286468506,9.58168029785156,9.58294773101807,9.5842170715332,9.58548545837402,9.58675670623779,9.5880241394043,9.58929538726807,9.59056568145752,9.59183406829834,9.59310436248779,9.5943775177002,9.59564971923828,9.59692287445068,9.59819412231445,9.59946823120117,9.60074234008789,9.60201358795166,9.60328769683838,9.60456371307373,9.60583591461182,9.60711097717285,9.6083869934082,9.60966110229492,9.61093807220459,9.61221408843994,9.61348819732666,9.61476612091064,9.616042137146,9.61731910705566,9.61860084533691,9.61987590789795,9.62115669250488,9.62243270874023,9.6237154006958,9.6249942779541,9.62627410888672,9.62755489349365,9.62883377075195,9.63011455535889,9.63139533996582,9.63267993927002,9.63396072387695,9.6352424621582,9.63652324676514,9.63780784606934,9.63909149169922,9.64037418365479,9.64165687561035,9.64294242858887,9.64422607421875,9.6455135345459,9.64679718017578,9.64808177947998,9.64937019348145,9.65065670013428,9.65194320678711,9.65323066711426,9.65451812744141,9.65580368041992,9.65709495544434,9.65838146209717,9.65967082977295,9.66096019744873,9.6622486114502,9.66353797912598,9.66482830047607,9.66611766815186,9.6674108505249,9.66869831085205,9.66999435424805,9.67128276824951,9.67257499694824,9.67387008666992,9.67516136169434,9.67645454406738,9.67775249481201,9.67904281616211,9.68033790588379,9.68163394927979,9.68292713165283,9.68422317504883,9.68552017211914,9.68681335449219,9.68811130523682,9.68940830230713,9.69070339202881,9.69200229644775,9.69329929351807,9.69459629058838,9.69589710235596,9.69719409942627,9.69849586486816,9.69979286193848,9.70109176635742,9.70239162445068,9.70369529724121,9.70499420166016,9.70629787445068,9.70759868621826,9.70890045166016,9.71020221710205,9.71150588989258,9.71280956268311,9.714111328125,9.71541500091553,9.71671867370605,9.71802425384521,9.71932792663574,9.72063255310059,9.72193813323975,9.72324466705322,9.72455024719238,9.72585678100586,9.72716426849365,9.72847080230713,9.72977733612061,9.73108768463135,9.73239612579346,9.73370456695557,9.73501205444336,9.7363224029541,9.73763179779053,9.73894214630127,9.74025058746338,9.74156284332275,9.74287223815918,9.74418449401855,9.74549770355225,9.74680995941162,9.74812316894531,9.74943351745605,9.75074672698975,9.75206184387207,9.75337314605713,9.75468635559082,9.75600147247314,9.75731658935547,9.75863456726074,9.75994968414307,9.76126670837402,9.76258373260498,9.76389980316162,9.76521682739258,9.76653289794922,9.76785182952881,9.76916790008545,9.77048778533936,9.77180480957031,9.77312660217285,9.77444458007812,9.7757625579834,9.77708625793457,9.77840614318848,9.77972602844238,9.78104782104492,9.78236865997314,9.78369331359863,9.7850170135498,9.78633880615234,9.7876615524292,9.78898525238037,9.79030799865723,9.79163455963135,9.7929573059082,9.79428195953369,9.79560852050781
8.35778713226318,8.35776901245117,8.35774993896484,8.35773181915283,8.3577127456665,8.35769462585449,8.35767555236816,8.35765743255615,8.35763835906982,8.35762023925781,8.35760116577148,8.35758209228516,8.35756397247314,8.35754489898682,8.3575267791748,8.35750770568848,8.35748958587646,8.35747051239014,8.35745239257812,8.3574333190918,8.35741519927979,8.35739612579346,8.35737800598145,8.35735893249512,8.35733985900879,8.35732173919678,8.35730266571045,8.35728454589844,8.35726547241211,8.3572473526001,8.35722827911377,8.35721015930176,8.35719108581543,8.35717296600342,8.35715389251709,8.35713577270508,8.35711669921875,8.35709762573242,8.35707950592041,8.35706043243408,8.35704231262207,8.35702323913574,8.35700511932373,8.3569860458374,8.35696792602539,8.35694885253906,8.35693073272705,8.35691165924072,8.35689353942871,8.35687446594238,8.35685539245605,8.35739135742188,8.38690853118896,8.41663455963135,8.44657325744629,8.47672462463379,8.50709247589111,8.53767871856689,8.5684871673584,8.59951877593994,8.63077640533447,8.66226196289062,8.69397830963135,8.72592735290527,8.75811195373535,8.79053497314453,8.82319927215576,8.85610675811768,8.88926124572754,8.92266464233398,8.95631980895996,8.99022960662842,9.02439785003662,9.0588264465332,9.09351921081543,9.12847805023193,9.16370677947998,9.19920921325684,9.23498725891113,9.27104473114014,9.3073844909668,9.34401035308838,9.38092613220215,9.41813468933105,9.45563983917236,9.46272087097168,9.46395778656006,9.46519470214844,9.46643447875977,9.46767044067383,9.46890926361084,9.4701509475708,9.47138690948486,9.47262859344482,9.47386837005615,9.47510719299316,9.47634792327881,9.47758769989014,9.4788293838501,9.48007106781006,9.48131275177002,9.48255252838135,9.48379707336426,9.48503875732422,9.4862813949585,9.48752307891846,9.48876667022705,9.49001312255859,9.49125385284424,9.49249935150146,9.49374675750732,9.49498844146729,9.49623775482178,9.497483253479,9.49872970581055,9.49997520446777,9.50122356414795,9.50246810913086,9.50371646881104,9.50496482849121,9.50621223449707,9.50746250152588,9.50870990753174,9.50995922088623,9.51120948791504,9.5124568939209,9.51370811462402,9.51495838165283,9.51620960235596,9.51746082305908,9.51871204376221,9.51996326446533,9.52121734619141,9.52246761322021,9.52372360229492,9.52497482299805,9.5262279510498,9.52748394012451,9.52873706817627,9.52998924255371,9.53124618530273,9.53250026702881,9.53375625610352,9.53501224517822,9.53626728057861,9.53752326965332,9.53877925872803,9.54003524780273,9.54129314422607,9.54255104064941,9.54381084442139,9.54506874084473,9.54632759094238,9.54758930206299,9.54884624481201,9.55010604858398,9.55136680603027,9.55262851715088,9.55388736724854,9.55514812469482,9.5564079284668,9.55767059326172,9.55893325805664,9.56019401550293,9.56145858764648,9.56272125244141,9.5639820098877,9.56525039672852,9.56651306152344,9.56777858734131,9.56904125213623,9.57030582427979,9.57157135009766,9.57283592224121,9.57410526275635,9.57537078857422,9.57663822174072,9.57790279388428,9.57917213439941,9.58043766021729,9.58170890808105,9.58297634124756,9.58424377441406,9.58551502227783,9.58678245544434,9.58805084228516,9.58932209014893,9.59059143066406,9.59186553955078,9.59313297271729,9.594407081604,9.59567737579346,9.59695053100586,9.59822082519531,9.59949493408203,9.60076713562012,9.60204315185547,9.60331535339355,9.60458946228027,9.60586738586426,9.60713958740234,9.60841369628906,9.60969066619873,9.61096477508545,9.61224269866943,9.61351776123047,9.61479568481445,9.61607265472412,9.61734867095947,9.61862564086914,9.61990642547607,9.62118339538574,9.62246131896973,9.62374210357666,9.62502098083496,9.62630081176758,9.62758159637451,9.62886238098145,9.63014507293701,9.63142681121826,9.63270568847656,9.63398933410645,9.63527011871338,9.63655281066895,9.63783645629883,9.63912010192871,9.64040279388428,9.64168643951416,9.64297199249268,9.64425754547119,9.64553928375244,9.64682483673096,9.64811229705811,9.64939785003662,9.6506814956665,9.6519718170166,9.65325927734375,9.65454769134521,9.65583515167236,9.6571216583252,9.65841197967529,9.65969944000244,9.66098594665527,9.662278175354,9.66356754302979,9.66485595703125,9.66614818572998,9.66743850708008,9.66872882843018,9.67002201080322,9.67131042480469,9.67260456085205,9.6738977432251,9.6751880645752,9.67648220062256,9.67777729034424,9.67907238006592,9.68036842346191,9.68166160583496,9.68295669555664,9.684250831604,9.685546875,9.68684387207031,9.68813991546631,9.6894359588623
8.35788345336914,8.35786437988281,8.3578462600708,8.35782718658447,8.35780811309814,8.35778999328613,8.3577709197998,8.35775279998779,8.35773372650146,8.35771560668945,8.35769653320312,8.35767841339111,8.35765933990479,8.35764122009277,8.35762214660645,8.35760307312012,8.35758495330811,8.35756587982178,8.35754776000977,8.35752868652344,8.35751056671143,8.3574914932251,8.35747337341309,8.35745429992676,8.35743618011475,8.35741710662842,8.35739898681641,8.35737991333008,8.35736083984375,8.35734272003174,8.35732364654541,8.3573055267334,8.35728645324707,8.35726833343506,8.35724925994873,8.35723114013672,8.35721206665039,8.35719394683838,8.35717487335205,8.35715675354004,8.35713768005371,8.35711860656738,8.35710048675537,8.35708141326904,8.35706329345703,8.3570442199707,8.35702610015869,8.35700702667236,8.35698890686035,8.35696983337402,8.35695171356201,8.35775470733643,8.38727378845215,8.4170036315918,8.44694423675537,8.47709846496582,8.50746917724609,8.53805828094482,8.56886959075928,8.59990406036377,8.63116455078125,8.66265296936035,8.69437122344971,8.7263240814209,8.75851154327393,8.79093742370605,8.82360458374023,8.85651588439941,8.88967323303223,8.92307949066162,8.95673751831055,8.99065113067627,9.02482223510742,9.05925464630127,9.09395027160645,9.1289119720459,9.16414451599121,9.19964981079102,9.23543167114258,9.27149200439453,9.30783557891846,9.3444652557373,9.3599739074707,9.36118602752686,9.36239433288574,9.36360549926758,9.36481666564941,9.3660306930542,9.36724090576172,9.3684549331665,9.36966514587402,9.37088012695312,9.37209510803223,9.37330532073975,9.37452220916748,9.37573432922363,9.37694835662842,9.37816524505615,9.37937831878662,9.38059329986572,9.38180923461914,9.38302421569824,9.38424396514893,9.38545799255371,9.38667297363281,9.3878927230835,9.38911151885986,9.3903284072876,9.39154720306396,9.39276504516602,9.39398384094238,9.39520263671875,9.39642238616943,9.39764308929443,9.39886474609375,9.40008163452148,9.4013032913208,9.40252494812012,9.4037446975708,9.40496635437012,9.40618991851807,9.40741539001465,9.40863704681396,9.40985679626465,9.41108131408691,9.41230487823486,9.41352653503418,9.41475391387939,9.41597652435303,9.41720008850098,9.41842842102051,9.41965198516846,9.42087841033936,9.42210674285889,9.42333316802979,9.42455959320068,9.4257869720459,9.4270133972168,9.42824172973633,9.42947006225586,9.43069648742676,9.43192577362061,9.43315410614014,9.43438625335693,9.43561553955078,9.43684196472168,9.43807411193848,9.43930530548096,9.44053363800049,9.4417667388916,9.44299793243408,9.4442310333252,9.44546318054199,9.44669628143311,9.44793128967285,9.44916439056396,9.45039558410645,9.45163059234619,9.4528636932373,9.45409679412842,9.45533275604248,9.45656776428223,9.45780563354492,9.45904064178467,9.46027565002441,9.46151161193848,9.46274852752686,9.46398448944092,9.46522426605225,9.46646213531494,9.46770000457764,9.46893692016602,9.47017478942871,9.47141456604004,9.47265720367432,9.47389316558838,9.47513675689697,9.47637462615967,9.477614402771,9.47885704040527,9.48009872436523,9.48134136199951,9.48258113861084,9.48382186889648,9.48506546020508,9.48631000518799,9.48755073547363,9.48879528045654,9.49003982543945,9.49128437042236,9.49252700805664,9.49377346038818,9.49501800537109,9.496262550354,9.49750900268555,9.49875640869141,9.50000286102295,9.50124931335449,9.50249671936035,9.50374317169189,9.50499439239502,9.50623989105225,9.50749015808105,9.50873947143555,9.50998687744141,9.5112361907959,9.51248550415039,9.51373481750488,9.51498603820801,9.51623725891113,9.51748847961426,9.5187406539917,9.51998996734619,9.52124118804932,9.52249717712402,9.52374649047852,9.52500247955322,9.52625560760498,9.52750968933105,9.52876567840576,9.53001880645752,9.53127288818359,9.5325288772583,9.53378295898438,9.53503894805908,9.53629684448242,9.5375509262085,9.53880882263184,9.54006481170654,9.5413236618042,9.54257965087891,9.54383850097656,9.5450963973999,9.54635524749756,9.5476131439209,9.54887390136719,9.55013465881348,9.55139350891113,9.55265617370605,9.55391597747803,9.55517673492432,9.55643939971924,9.55770015716553,9.55896091461182,9.56022453308105,9.56148719787598,9.5627498626709,9.56401348114014,9.56527614593506,9.5665397644043,9.56780433654785,9.56906795501709,9.57033538818359,9.57159805297852,9.57286548614502,9.57413101196289,9.57539653778076,9.5766658782959,9.5779333114624,9.57919883728027,9.58047008514404,9.58173561096191,9.58300304412842,9.58427333831787,9.58554077148438
8.35797882080078,8.35795974731445,8.35794162750244,8.35792255401611,8.3579044342041,8.35788536071777,8.35786724090576,8.35784816741943,8.35782909393311,8.35781097412109,8.35779190063477,8.35777378082275,8.35775470733643,8.35773658752441,8.35771751403809,8.35769939422607,8.35768032073975,8.35766220092773,8.35764312744141,8.35762500762939,8.35760593414307,8.35758686065674,8.35756874084473,8.3575496673584,8.35753154754639,8.35751247406006,8.35749435424805,8.35747528076172,8.35745716094971,8.35743808746338,8.35741996765137,8.35740089416504,8.35738277435303,8.3573637008667,8.35734462738037,8.35732650756836,8.35730743408203,8.35728931427002,8.35727024078369,8.35725212097168,8.35723304748535,8.35721492767334,8.35719585418701,8.357177734375,8.35715866088867,8.35714054107666,8.35712146759033,8.357102394104,8.35708427429199,8.35706520080566,8.35704708099365,8.35811710357666,8.38763999938965,8.41737174987793,8.44731521606445,8.47747230529785,8.50784492492676,8.53843784332275,8.56925201416016,8.6002893447876,8.63155174255371,8.66304397583008,8.69476509094238,8.72671985626221,8.7589111328125,8.79133987426758,8.82401084899902,8.85692405700684,8.8900842666626,8.92349433898926,8.95715522766113,8.99107265472412,9.02524662017822,9.05968189239502,9.09438037872314,9.12934684753418,9.16458225250244,9.2000904083252,9.23587608337402,9.25943756103516,9.26061916351318,9.26180362701416,9.26299095153809,9.26417541503906,9.26536083221436,9.26654815673828,9.26773357391357,9.2689208984375,9.27010822296143,9.2712926864624,9.27248287200928,9.2736701965332,9.27485942840576,9.27604866027832,9.27723598480225,9.27842617034912,9.27961349487305,9.28080463409424,9.28199291229248,9.28318214416504,9.28437423706055,9.28556632995605,9.28675746917725,9.28794956207275,9.28914165496826,9.29033184051514,9.29152393341064,9.29271793365479,9.29390716552734,9.29510402679443,9.29629516601562,9.29748821258545,9.29868602752686,9.29988098144531,9.30107688903809,9.30227088928223,9.30346393585205,9.30466175079346,9.30585670471191,9.30705451965332,9.30824947357178,9.3094482421875,9.31064510345459,9.311842918396,9.31303977966309,9.31424045562744,9.3154354095459,9.31663417816162,9.31783580780029,9.3190336227417,9.32023239135742,9.32143402099609,9.32263469696045,9.32383632659912,9.32503795623779,9.32623672485352,9.32744026184082,9.32864284515381,9.32984256744385,9.33104705810547,9.33224868774414,9.33345413208008,9.33465576171875,9.33585739135742,9.33706474304199,9.3382682800293,9.3394718170166,9.34067916870117,9.34188365936279,9.3430871963501,9.34429454803467,9.34549999237061,9.34671020507812,9.34791469573975,9.34912395477295,9.35033226013184,9.35153770446777,9.35274600982666,9.35395431518555,9.35516452789307,9.35637283325195,9.35758304595947,9.35879135131836,9.36000156402588,9.3612117767334,9.36242389678955,9.36363410949707,9.36484432220459,9.36605548858643,9.36726951599121,9.36848068237305,9.3696928024292,9.37090587615967,9.37211799621582,9.37333488464355,9.37454795837402,9.37576103210449,9.37697792053223,9.37819004058838,9.37940502166748,9.3806209564209,9.38183498382568,9.38305473327637,9.38426971435547,9.3854866027832,9.38670444488525,9.38791942596436,9.38913631439209,9.39035606384277,9.39157295227051,9.39279270172119,9.39401054382324,9.39522743225098,9.39644908905029,9.39766883850098,9.39888858795166,9.40011215209961,9.40133190155029,9.40254974365234,9.40377521514893,9.40499496459961,9.40621852874756,9.40743923187256,9.40866088867188,9.40988445281982,9.41110706329346,9.41233062744141,9.41355514526367,9.41477870941162,9.41600513458252,9.41722965240479,9.41845321655273,9.41967964172363,9.42090606689453,9.42213249206543,9.42335987091064,9.42458629608154,9.42581176757812,9.42704105377197,9.4282693862915,9.42949867248535,9.43072700500488,9.43195343017578,9.43318462371826,9.43441295623779,9.43564033508301,9.4368724822998,9.43810176849365,9.43933296203613,9.44056415557861,9.44179439544678,9.44302558898926,9.44425868988037,9.44548988342285,9.44672393798828,9.44795417785645,9.44918823242188,9.45042419433594,9.45165538787842,9.45289325714111,9.45412635803223,9.45536136627197,9.45659732818604,9.45783042907715,9.45906639099121,9.46030235290527,9.46153926849365,9.46277809143066,9.46401405334473,9.46524906158447,9.4664888381958,9.46772480010986,9.46896457672119,9.4702033996582,9.4714412689209,9.47268199920654,9.47391986846924,9.4751615524292,9.47640419006348,9.4776439666748,9.47888469696045,9.48012733459473,9.48136806488037,9.48260974884033,9.48385047912598
8.35807418823242,8.35805511474609,8.35803699493408,8.35801792144775,8.35799980163574,8.35798072814941,8.3579626083374,8.35794353485107,8.35792541503906,8.35790634155273,8.35788822174072,8.35786914825439,8.35785102844238,8.35783195495605,8.35781288146973,8.35779476165771,8.35777568817139,8.35775756835938,8.35773849487305,8.35772037506104,8.35770130157471,8.3576831817627,8.35766410827637,8.35764598846436,8.35762691497803,8.35760879516602,8.35758972167969,8.35757064819336,8.35755252838135,8.35753345489502,8.35751533508301,8.35749626159668,8.35747814178467,8.35745906829834,8.35744094848633,8.357421875,8.35740375518799,8.35738468170166,8.35736656188965,8.35734748840332,8.35732841491699,8.35731029510498,8.35729122161865,8.35727310180664,8.35725402832031,8.3572359085083,8.35721683502197,8.35719871520996,8.35717964172363,8.35716152191162,8.35714244842529,8.35848045349121,8.38800525665283,8.41773986816406,8.44768619537354,8.47784614562988,8.50822162628174,8.53881740570068,8.56963443756104,8.60067462921143,8.6319408416748,8.66343402862549,8.69515895843506,8.72711753845215,8.75931072235107,8.79174327850342,8.8244161605835,8.85733318328857,8.89049625396729,8.92390918731689,8.95757389068604,8.99149322509766,9.02567100524902,9.06010913848877,9.09481143951416,9.12978076934814,9.16103458404541,9.16219520568848,9.16335296630859,9.16451263427734,9.16567516326904,9.16683483123779,9.16799449920654,9.16915702819824,9.17031669616699,9.17148113250732,9.17263984680176,9.17380237579346,9.17496585845947,9.1761302947998,9.17729091644287,9.17845726013184,9.17962169647217,9.18078422546387,9.18194961547852,9.18311405181885,9.18428039550781,9.18544483184814,9.18661022186279,9.18777656555176,9.18894290924072,9.19010829925537,9.19127464294434,9.19244194030762,9.1936092376709,9.19477844238281,9.19594478607178,9.19711399078369,9.19828319549561,9.19944953918457,9.2006196975708,9.20179080963135,9.20296001434326,9.20413112640381,9.20530033111572,9.20647430419922,9.2076416015625,9.20881462097168,9.20998668670654,9.21115779876709,9.21232891082764,9.2135009765625,9.21467304229736,9.21584796905518,9.21702003479004,9.21819400787354,9.21936798095703,9.22054195404053,9.22171688079834,9.22289180755615,9.22406578063965,9.22524070739746,9.22641754150391,9.22759532928467,9.2287712097168,9.22994613647461,9.23112392425537,9.23230266571045,9.23347854614258,9.23465728759766,9.23583698272705,9.2370138168335,9.23819446563721,9.23937225341797,9.24055099487305,9.24173164367676,9.24291038513184,9.24408912658691,9.24526977539062,9.24645233154297,9.24763107299805,9.24881553649902,9.24999618530273,9.25117969512939,9.25236225128174,9.25354385375977,9.25473022460938,9.25590991973877,9.25709247589111,9.25827980041504,9.25946044921875,9.26064586639404,9.26183128356934,9.263014793396,9.26420116424561,9.26538753509521,9.26657199859619,9.26775932312012,9.26894760131836,9.27013111114502,9.27132034301758,9.2725076675415,9.27369785308838,9.2748851776123,9.27607250213623,9.27726459503174,9.27845287322998,9.27964019775391,9.28083038330078,9.28202056884766,9.28321075439453,9.28439998626709,9.28559017181396,9.28678417205811,9.28797626495361,9.28916454315186,9.290358543396,9.29155158996582,9.29274272918701,9.29393577575684,9.29512786865234,9.29632377624512,9.29751682281494,9.29871082305908,9.29990768432617,9.301100730896,9.30229473114014,9.30349349975586,9.30468845367432,9.30588531494141,9.30707931518555,9.30827617645264,9.30947589874268,9.31067180633545,9.31186866760254,9.31306743621826,9.31426429748535,9.31546211242676,9.31666278839111,9.31786251068115,9.31906127929688,9.3202600479126,9.32145977020264,9.32266044616699,9.32386016845703,9.3250617980957,9.32626533508301,9.32746601104736,9.32866764068604,9.32987117767334,9.33107280731201,9.33227634429932,9.33347988128662,9.33468246459961,9.33588600158691,9.33709144592285,9.33829498291016,9.33949947357178,9.34070491790771,9.34191131591797,9.34311676025391,9.34432029724121,9.3455286026001,9.34673309326172,9.34793949127197,9.34914970397949,9.35035514831543,9.35156345367432,9.35277366638184,9.35398197174072,9.35519123077393,9.35639762878418,9.35760974884033,9.35881996154785,9.36002826690674,9.36123752593994,9.36245059967041,9.3636589050293,9.3648738861084,9.36608409881592,9.36729526519775,9.36850929260254,9.36971855163574,9.37093162536621,9.37214469909668,9.37335968017578,9.37457275390625,9.37578773498535,9.37700462341309,9.37821769714355,9.37943363189697,9.38064670562744,9.38186550140381,9.38308048248291,9.3842945098877
8.35816955566406,8.35815143585205,8.35813236236572,8.35811424255371,8.35809516906738,8.35807704925537,8.35805797576904,8.35803890228271,8.3580207824707,8.35800170898438,8.35798358917236,8.35796451568604,8.35794639587402,8.3579273223877,8.35790920257568,8.35789012908936,8.35787200927734,8.35785293579102,8.357834815979,8.35781574249268,8.35779666900635,8.35777854919434,8.35775947570801,8.357741355896,8.35772228240967,8.35770416259766,8.35768508911133,8.35766696929932,8.35764789581299,8.35762977600098,8.35761070251465,8.35759162902832,8.35757350921631,8.35755443572998,8.35753631591797,8.35751724243164,8.35749912261963,8.3574800491333,8.35746192932129,8.35744285583496,8.35742473602295,8.35740566253662,8.35738754272461,8.35736846923828,8.35734939575195,8.35733127593994,8.35731220245361,8.3572940826416,8.35727500915527,8.35725688934326,8.35723781585693,8.35884380340576,8.38837146759033,8.4181079864502,8.44805717468262,8.4782190322876,8.50859832763672,8.53919696807861,8.57001686096191,8.60105991363525,8.63232898712158,8.66382598876953,8.69555282592773,8.72751426696777,8.75971031188965,8.79214572906494,8.82482147216797,8.857741355896,8.89090824127197,8.92432403564453,8.95799160003662,8.99191474914551,9.02609539031982,9.06053733825684,9.06583595275879,9.06697177886963,9.06810665130615,9.06924343109131,9.07038021087646,9.0715160369873,9.07265281677246,9.07378959655762,9.07492733001709,9.07606410980225,9.07720184326172,9.07834148406982,9.07948112487793,9.08061981201172,9.08175754547119,9.0828971862793,9.08403587341309,9.08517646789551,9.08631801605225,9.08745765686035,9.08859920501709,9.08974075317383,9.09088230133057,9.09202480316162,9.09316825866699,9.0943078994751,9.09545230865479,9.09659385681152,9.09773635864258,9.09888076782227,9.10002422332764,9.10117053985596,9.10231113433838,9.1034574508667,9.1046028137207,9.10574722290039,9.10689163208008,9.1080379486084,9.10918235778809,9.11033344268799,9.11147785186768,9.112624168396,9.11377429962158,9.1149206161499,9.11606788635254,9.11721801757812,9.11836528778076,9.11951160430908,9.12066268920898,9.12181091308594,9.12296009063721,9.12411117553711,9.12526035308838,9.12641048431396,9.12756156921387,9.12871265411377,9.12986469268799,9.13101482391357,9.13216590881348,9.13331890106201,9.13447093963623,9.1356258392334,9.13677787780762,9.13793087005615,9.13908576965332,9.14023971557617,9.14139270782471,9.14254856109619,9.14370250701904,9.14485931396484,9.1460132598877,9.14716720581055,9.14832496643066,9.14947986602783,9.15063571929932,9.15179347991943,9.15294933319092,9.15410709381104,9.15526580810547,9.15642261505127,9.15758323669434,9.15874195098877,9.15989971160889,9.16106128692627,9.16221809387207,9.16337966918945,9.16454029083252,9.16569995880127,9.16686248779297,9.1680212020874,9.16918087005615,9.17034339904785,9.17150592803955,9.17266654968262,9.17383098602295,9.17499160766602,9.17615604400635,9.17731761932373,9.17848205566406,9.17964649200439,9.18081092834473,9.18197441101074,9.18314170837402,9.18430423736572,9.18546867370605,9.18663787841797,9.1878023147583,9.18896961212158,9.19013500213623,9.19130229949951,9.19246864318848,9.19363594055176,9.19480323791504,9.19597053527832,9.1971378326416,9.19830799102783,9.19947624206543,9.20064449310303,9.20181751251221,9.20298480987549,9.20415306091309,9.20532608032227,9.20649814605713,9.20766925811768,9.20884132385254,9.21001052856445,9.21118450164795,9.21235656738281,9.21352672576904,9.21470069885254,9.2158727645874,9.2170467376709,9.21822071075439,9.21939277648926,9.22056865692139,9.22174263000488,9.22291851043701,9.22409343719482,9.225266456604,9.22644138336182,9.22761917114258,9.22879600524902,9.22997093200684,9.23115158081055,9.23232746124268,9.23350620269775,9.2346830368042,9.23586082458496,9.23704051971436,9.23821830749512,9.2393970489502,9.24057769775391,9.24175643920898,9.24293518066406,9.24411678314209,9.2452974319458,9.24647903442383,9.24765777587891,9.24883842468262,9.25002384185791,9.25120449066162,9.25238609313965,9.25357055664062,9.25475406646729,9.25593948364258,9.25712108612061,9.25830364227295,9.25949001312256,9.26067352294922,9.26185607910156,9.26304244995117,9.26422786712646,9.26541137695312,9.26660060882568,9.26778602600098,9.26897430419922,9.27016162872314,9.27134799957275,9.27253532409668,9.27372169494629,9.27490901947021,9.27609920501709,9.27728748321533,9.27847576141357,9.27966594696045,9.28085613250732,9.28204822540283,9.28323841094971,9.28442764282227,9.28561878204346,9.28680896759033
8.3582649230957,8.35824680328369,8.35822772979736,8.35820960998535,8.35819053649902,8.35817241668701,8.35815334320068,8.35813522338867,8.35811614990234,8.35809803009033,8.358078956604,8.35806083679199,8.35804176330566,8.35802268981934,8.35800457000732,8.357985496521,8.35796737670898,8.35794830322266,8.35793018341064,8.35791110992432,8.3578929901123,8.35787391662598,8.35785579681396,8.35783672332764,8.35781764984131,8.3577995300293,8.35778045654297,8.35776233673096,8.35774326324463,8.35772514343262,8.35770606994629,8.35768795013428,8.35766887664795,8.35765075683594,8.35763168334961,8.3576135635376,8.35759449005127,8.35757541656494,8.35755729675293,8.3575382232666,8.35752010345459,8.35750102996826,8.35748291015625,8.35746383666992,8.35744571685791,8.35742664337158,8.35740852355957,8.35738945007324,8.35737133026123,8.3573522567749,8.35733318328857,8.35920715332031,8.38873767852783,8.41847705841064,8.4484281539917,8.47859287261963,8.50897598266602,8.53957748413086,8.57039928436279,8.60144519805908,8.63271713256836,8.66421699523926,8.69594669342041,8.7279109954834,8.76010990142822,8.79254817962646,8.82522773742676,8.85815048217773,8.89132022857666,8.92473888397217,8.95840930938721,8.97148418426514,8.97259616851807,8.97371006011963,8.97482204437256,8.9759349822998,8.97704887390137,8.9781608581543,8.97927379608154,8.98038864135742,8.98150062561035,8.98261642456055,8.98373317718506,8.9848461151123,8.98596000671387,8.98707675933838,8.98819160461426,8.98930835723877,8.99042510986328,8.99154186248779,8.9926586151123,8.99377346038818,8.99489402770996,8.99601364135742,8.9971284866333,8.99825000762939,8.99936676025391,9.00048542022705,9.0016040802002,9.00272369384766,9.0038423538208,9.00496578216553,9.00608253479004,9.0072021484375,9.00832748413086,9.00944519042969,9.01056861877441,9.01168823242188,9.01280879974365,9.0139331817627,9.01505470275879,9.0161771774292,9.01730155944824,9.0184268951416,9.01955127716064,9.02067279815674,9.02179622650146,9.02292251586914,9.02404594421387,9.02517127990723,9.0262975692749,9.02742099761963,9.0285472869873,9.02967548370361,9.03079986572266,9.03192710876465,9.03305530548096,9.03418159484863,9.03530979156494,9.03643608093262,9.03756427764893,9.03869342803955,9.03982162475586,9.04095363616943,9.04208183288574,9.04321098327637,9.04434108734131,9.04547119140625,9.04660224914551,9.04773235321045,9.04886341094971,9.04999351501465,9.05112648010254,9.05225563049316,9.05338859558105,9.05452156066895,9.05565357208252,9.05678653717041,9.05792140960693,9.05905246734619,9.06018829345703,9.06132125854492,9.06245803833008,9.06358909606934,9.06472396850586,9.06586170196533,9.06699848175049,9.0681324005127,9.06926918029785,9.07040405273438,9.07153987884521,9.07267761230469,9.07381534576416,9.07495212554932,9.07608985900879,9.07722759246826,9.07836723327637,9.07950496673584,9.08064270019531,9.08178424835205,9.08292198181152,9.08406162261963,9.08520126342773,9.08634281158447,9.08748340606689,9.08862686157227,9.08976745605469,9.09090709686279,9.09204959869385,9.09319114685059,9.09433364868164,9.0954761505127,9.09661960601807,9.09776210784912,9.09890460968018,9.10004901885986,9.10119342803955,9.10233688354492,9.10348224639893,9.10462665557861,9.10577011108398,9.10691928863525,9.10806369781494,9.10921096801758,9.1103572845459,9.11150169372559,9.11265087127686,9.11379718780518,9.11494636535645,9.11609363555908,9.11724185943604,9.1183910369873,9.11953830718994,9.12068748474121,9.12183856964111,9.12298679351807,9.12413597106934,9.12528705596924,9.12643623352051,9.12758731842041,9.128737449646,9.12989044189453,9.13104152679443,9.13219261169434,9.13334465026855,9.13449764251709,9.13564968109131,9.13680362701416,9.13795852661133,9.13911056518555,9.14026641845703,9.14141941070557,9.14257144927979,9.14372730255127,9.14488506317139,9.14603710174561,9.14719486236572,9.14835071563721,9.14950466156006,9.15066432952881,9.15182018280029,9.15297698974609,9.15413475036621,9.15529251098633,9.15644931793213,9.15760707855225,9.15876388549805,9.15992546081543,9.1610860824585,9.16224479675293,9.16340351104736,9.16456413269043,9.16572570800781,9.16688442230225,9.16804695129395,9.16920757293701,9.17036819458008,9.17153072357178,9.17269229888916,9.17385482788086,9.17501926422119,9.17618083953857,9.17734146118164,9.17850875854492,9.17967128753662,9.18083572387695,9.1820011138916,9.18316459655762,9.1843318939209,9.18549633026123,9.18666362762451,9.18782901763916,9.18899440765381,9.19015979766846,9.19132900238037
8.35836124420166,8.35834217071533,8.35832405090332,8.35830497741699,8.35828685760498,8.35826778411865,8.35824871063232,8.35823059082031,8.35821151733398,8.35819339752197,8.35817432403564,8.35815620422363,8.3581371307373,8.35811901092529,8.35809993743896,8.35808181762695,8.35806274414062,8.3580436706543,8.35802555084229,8.35800647735596,8.35798835754395,8.35796928405762,8.35795116424561,8.35793209075928,8.35791397094727,8.35789489746094,8.35787677764893,8.3578577041626,8.35783958435059,8.35782051086426,8.35780143737793,8.35778331756592,8.35776424407959,8.35774612426758,8.35772705078125,8.35770893096924,8.35768985748291,8.3576717376709,8.35765266418457,8.35763454437256,8.35761547088623,8.35759735107422,8.35757827758789,8.35755920410156,8.35754108428955,8.35752201080322,8.35750389099121,8.35748481750488,8.35746669769287,8.35744762420654,8.35742950439453,8.35957050323486,8.38910293579102,8.41884517669678,8.44879913330078,8.47896671295166,8.509352684021,8.53995704650879,8.57078170776367,8.60183048248291,8.63310527801514,8.66460800170898,8.69634056091309,8.72830772399902,8.76051044464111,8.79295063018799,8.82563304901123,8.85855960845947,8.879075050354,8.88016605377197,8.88125610351562,8.88234329223633,8.88343715667725,8.88452625274658,8.88561534881592,8.8867073059082,8.88779735565186,8.88889122009277,8.88998031616211,8.89107227325439,8.892165184021,8.89325523376465,8.89434909820557,8.89544296264648,8.89653491973877,8.89762878417969,8.89872264862061,8.89981651306152,8.90091037750244,8.90200519561768,8.90309906005859,8.90419483184814,8.90528964996338,8.90638542175293,8.90748596191406,8.90857982635498,8.90967845916748,8.91077136993408,8.91187000274658,8.91296768188477,8.91406440734863,8.9151611328125,8.91625881195068,8.91735744476318,8.91845607757568,8.91955471038818,8.920654296875,8.9217529296875,8.9228515625,8.92395210266113,8.92505264282227,8.9261531829834,8.9272518157959,8.92835807800293,8.92945671081543,8.9305591583252,8.93166255950928,8.93276119232178,8.93386459350586,8.93496608734131,8.93607044219971,8.93717479705811,8.93827724456787,8.93938064575195,8.94048595428467,8.94158935546875,8.94269466400146,8.94379997253418,8.94490337371826,8.94600868225098,8.94711494445801,8.94821834564209,8.94932746887207,8.95043182373047,8.9515438079834,8.95264720916748,8.95375442504883,8.95486450195312,8.95596981048584,8.9570779800415,8.95818614959717,8.95929622650146,8.96040439605713,8.96151447296143,8.96262264251709,8.96373462677002,8.96484279632568,8.96595287322998,8.96706485748291,8.96817302703857,8.96928691864014,8.97039794921875,8.97150993347168,8.97262287139893,8.97373294830322,8.97484683990479,8.97595977783203,8.97707366943359,8.97818470001221,8.97929954528809,8.98041343688965,8.98152637481689,8.98264312744141,8.98375606536865,8.98487281799316,8.98598575592041,8.98710060119629,8.9882173538208,8.98933219909668,8.99044895172119,8.99156761169434,8.99268341064453,8.99380016326904,8.99491882324219,8.99603462219238,8.99715328216553,8.99827480316162,8.99939155578613,9.00051116943359,9.00162887573242,9.00274753570557,9.00386905670166,9.00498867034912,9.00610828399658,9.00722789764404,9.00835132598877,9.00947093963623,9.01059246063232,9.01171207427979,9.01283550262451,9.01395702362061,9.01508140563965,9.01620483398438,9.01732635498047,9.01845073699951,9.01957225799561,9.02069664001465,9.02182292938232,9.02294635772705,9.02406883239746,9.02519607543945,9.0263204574585,9.02744674682617,9.02857303619385,9.02969932556152,9.0308256149292,9.03195190429688,9.03307819366455,9.03420639038086,9.03533554077148,9.03646087646484,9.03759002685547,9.03871822357178,9.0398473739624,9.04097747802734,9.04210472106934,9.04323482513428,9.04436779022217,9.04549694061279,9.04662799835205,9.04775619506836,9.04888916015625,9.05001831054688,9.05114936828613,9.05228424072266,9.05341529846191,9.05454635620117,9.0556812286377,9.05681228637695,9.05794525146484,9.05907821655273,9.06021213531494,9.06134700775146,9.06248092651367,9.0636157989502,9.06475162506104,9.06588649749756,9.06701946258545,9.06815814971924,9.06929302215576,9.07043266296387,9.07156848907471,9.07270431518555,9.07384014129639,9.07497787475586,9.07611560821533,9.0772533416748,9.07839298248291,9.07953071594238,9.08067035675049,9.08180809020996,9.08294868469238,9.08408641815186,9.08522701263428,9.08636856079102,9.0875072479248,9.08864879608154,9.08978939056396,9.0909309387207,9.09207630157471,9.09321880340576,9.09435844421387,9.09550476074219,9.09664535522461,9.09778785705566
8.3584566116333,8.35843753814697,8.35841941833496,8.35840034484863,8.35838222503662,8.35836315155029,8.35834503173828,8.35832595825195,8.35830783843994,8.35828876495361,8.3582706451416,8.35825157165527,8.35823249816895,8.35821437835693,8.35819530487061,8.35817718505859,8.35815811157227,8.35813999176025,8.35812091827393,8.35810279846191,8.35808372497559,8.35806560516357,8.35804653167725,8.35802745819092,8.35800933837891,8.35799026489258,8.35797214508057,8.35795307159424,8.35793495178223,8.3579158782959,8.35789775848389,8.35787868499756,8.35786056518555,8.35784149169922,8.35782337188721,8.35780429840088,8.35778522491455,8.35776710510254,8.35774803161621,8.3577299118042,8.35771083831787,8.35769271850586,8.35767364501953,8.35765552520752,8.35763645172119,8.35761833190918,8.35759925842285,8.35758018493652,8.35756206512451,8.35754299163818,8.35752487182617,8.35993385314941,8.38946914672852,8.41921424865723,8.44917011260986,8.47934150695801,8.50973033905029,8.54033660888672,8.57116508483887,8.60221672058105,8.63349342346191,8.66499900817871,8.69673442840576,8.72870445251465,8.76091003417969,8.78855228424072,8.78961753845215,8.79068756103516,8.79175472259521,8.79282188415527,8.79389190673828,8.79495906829834,8.79602813720703,8.79709911346436,8.79816627502441,8.79923439025879,8.80030632019043,8.80137538909912,8.80244636535645,8.80351543426514,8.80458641052246,8.80565929412842,8.80672836303711,8.80780029296875,8.80887126922607,8.80994510650635,8.8110179901123,8.812087059021,8.81315898895264,8.81423664093018,8.8153076171875,8.81638145446777,8.81745529174805,8.81853103637695,8.81960391998291,8.82067966461182,8.82175350189209,8.822829246521,8.8239049911499,8.82498073577881,8.82605648040771,8.82713317871094,8.82820796966553,8.82928466796875,8.83036231994629,8.83143901824951,8.83251667022705,8.83359432220459,8.83467102050781,8.83575057983398,8.83682727813721,8.8379077911377,8.83898735046387,8.84006595611572,8.84114646911621,8.8422269821167,8.84330749511719,8.84438800811768,8.84546756744385,8.84655094146729,8.84763050079346,8.84871101379395,8.84979438781738,8.85087490081787,8.85195732116699,8.85303974151611,8.85412120819092,8.8552074432373,8.85628890991211,8.85737133026123,8.8584566116333,8.85953903198242,8.86062431335449,8.86170959472656,8.86279201507568,8.86388206481934,8.86496639251709,8.86605167388916,8.86713695526123,8.86822414398193,8.86931133270264,8.87039661407471,8.87148380279541,8.87257099151611,8.87365818023682,8.87474632263184,8.87583541870117,8.87692260742188,8.87801074981689,8.87910175323486,8.88018989562988,8.88127899169922,8.8823709487915,8.88345813751221,8.88455009460449,8.88564205169678,8.8867301940918,8.88782405853271,8.88891410827637,8.8900032043457,8.89109706878662,8.89218711853027,8.89328098297119,8.89437580108643,8.89546775817871,8.89656162261963,8.89765167236328,8.8987455368042,8.89984035491943,8.90093612670898,8.90202808380127,8.90312480926514,8.90421772003174,8.90531539916992,8.90641021728516,8.90750503540039,8.90860366821289,8.90970039367676,8.91079616546631,8.91189479827881,8.91299152374268,8.91408634185791,8.91518497467041,8.91628360748291,8.91738224029541,8.91847991943359,8.91958045959473,8.92067909240723,8.92177867889404,8.92287731170654,8.92397785186768,8.92507743835449,8.92617893218994,8.92727947235107,8.92837905883789,8.92948150634766,8.93058109283447,8.93168449401855,8.93278789520264,8.93388938903809,8.93499183654785,8.93609619140625,8.93719863891602,8.93830108642578,8.9394063949585,8.94050788879395,8.94161319732666,8.94271659851074,8.94382286071777,8.94493007659912,8.9460334777832,8.94713973999023,8.94824600219727,8.94935131072998,8.95045757293701,8.95156574249268,8.95266914367676,8.95378112792969,8.95488548278809,8.95599460601807,8.95710372924805,8.95821094512939,8.95932197570801,8.96043014526367,8.96153831481934,8.96264839172363,8.96375846862793,8.96486854553223,8.96597957611084,8.9670877456665,8.96819972991943,8.96931076049805,8.97042274475098,8.97153377532959,8.9726448059082,8.97375869750977,8.97486972808838,8.97598266601562,8.9770975112915,8.97821044921875,8.97932434082031,8.98043918609619,8.98155212402344,8.98266696929932,8.98378086090088,8.98489570617676,8.98601055145264,8.98712730407715,8.98824214935303,8.98935699462891,8.99047660827637,8.99159240722656,8.99270915985107,8.99382495880127,8.99494171142578,8.99606132507324,8.99717807769775,8.99829578399658,8.99941539764404,9.0005350112915,9.00165462493896,9.00277423858643,9.00389194488525,9.00501537322998,9.00613307952881
8.35855197906494,8.35853385925293,8.3585147857666,8.35849666595459,8.35847759246826,8.35845851898193,8.35844039916992,8.35842132568359,8.35840320587158,8.35838413238525,8.35836601257324,8.35834693908691,8.3583288192749,8.35830974578857,8.35829162597656,8.35827255249023,8.35825347900391,8.35823535919189,8.35821628570557,8.35819816589355,8.35817909240723,8.35816097259521,8.35814189910889,8.35812377929688,8.35810470581055,8.35808658599854,8.35806751251221,8.3580493927002,8.35803031921387,8.35801124572754,8.35799312591553,8.3579740524292,8.35795593261719,8.35793685913086,8.35791873931885,8.35789966583252,8.35788154602051,8.35786247253418,8.35784435272217,8.35782527923584,8.35780620574951,8.3577880859375,8.35776901245117,8.35775089263916,8.35773181915283,8.35771369934082,8.35769462585449,8.35767650604248,8.35765743255615,8.35763931274414,8.35762023925781,8.36029720306396,8.38983535766602,8.41958236694336,8.44954109191895,8.47971630096436,8.51010704040527,8.54071712493896,8.57154750823975,8.60260200500488,8.63388156890869,8.66539001464844,8.69712924957275,8.70090293884277,8.70194911956787,8.70299339294434,8.70404148101807,8.70508670806885,8.70613384246826,8.70718002319336,8.70822620391846,8.70927810668945,8.71032428741455,8.71137142181396,8.71242237091064,8.71346855163574,8.71451854705811,8.71556758880615,8.71661758422852,8.71766662597656,8.71871662139893,8.71976566314697,8.72081851959229,8.72186660766602,8.7229175567627,8.72397232055664,8.72502136230469,8.72607421875,8.72712516784668,8.72817611694336,8.7292308807373,8.73028373718262,8.7313346862793,8.73239040374756,8.73344135284424,8.73449611663818,8.73554992675781,8.73660469055176,8.73766040802002,8.73871517181396,8.73976898193359,8.74082374572754,8.7418794631958,8.74293422698975,8.74399185180664,8.7450475692749,8.7461051940918,8.74716091156006,8.74821662902832,8.74927616119385,8.75033187866211,8.751389503479,8.75245094299316,8.75350666046143,8.75456619262695,8.75562477111816,8.75668430328369,8.75774383544922,8.75880336761475,8.75986385345459,8.76092338562012,8.76198196411133,8.76304340362549,8.76410579681396,8.76516437530518,8.76622772216797,8.76728820800781,8.76835060119629,8.7694149017334,8.77047538757324,8.7715368270874,8.77260208129883,8.77366352081299,8.77472591400146,8.77579116821289,8.77685546875,8.77792167663574,8.77898406982422,8.78004932403564,8.78111362457275,8.78217887878418,8.78324508666992,8.78431034088135,8.78537654876709,8.78644371032715,8.78750801086426,8.78857517242432,8.78964424133301,8.79071044921875,8.79177951812744,8.7928466796875,8.79391384124756,8.79498291015625,8.79605197906494,8.797119140625,8.79819011688232,8.79926013946533,8.80032920837402,8.80139827728271,8.80247116088867,8.80353927612305,8.804612159729,8.80568218231201,8.8067512512207,8.80782508850098,8.80889415740967,8.80996704101562,8.8110408782959,8.81211090087891,8.81318473815918,8.81425762176514,8.81533145904541,8.81640720367432,8.81747913360596,8.81855487823486,8.8196268081665,8.82070255279541,8.82177925109863,8.82285118103027,8.82392692565918,8.82500457763672,8.82607936859131,8.82715702056885,8.82823276519775,8.82930755615234,8.83038806915283,8.83146381378174,8.83254051208496,8.8336181640625,8.83469486236572,8.83577346801758,8.83685302734375,8.83793163299561,8.83901214599609,8.84009265899658,8.84117126464844,8.84224987030029,8.84333038330078,8.84441089630127,8.84549236297607,8.8465747833252,8.84765338897705,8.84873485565186,8.84981727600098,8.8508996963501,8.8519811630249,8.85306358337402,8.85414886474609,8.85522937774658,8.85631275177002,8.85739612579346,8.85847949981689,8.8595666885376,8.86065006256104,8.86173248291016,8.86281967163086,8.8639030456543,8.864990234375,8.86607646942139,8.86716365814209,8.86824893951416,8.86933612823486,8.87042140960693,8.87150955200195,8.87259483337402,8.87368392944336,8.87477016448975,8.87585926055908,8.8769474029541,8.87803554534912,8.87912464141846,8.88021469116211,8.88130283355713,8.88239288330078,8.88348484039307,8.8845739364624,8.88566207885742,8.88675403594971,8.88784408569336,8.88893699645996,8.89003086090088,8.89112281799316,8.89221477508545,8.89330577850342,8.8943977355957,8.89549160003662,8.89658260345459,8.89767837524414,8.89877319335938,8.89986610412598,8.90095996856689,8.90205478668213,8.90314865112305,8.90424537658691,8.90534019470215,8.90643501281738,8.90753173828125,8.90862655639648,8.90972328186035,8.91082191467285,8.91191864013672,8.9130163192749,8.91411304473877,8.91520977020264,8.91630840301514
8.35864734649658,8.35862922668457,8.35861015319824,8.35859203338623,8.3585729598999,8.35855484008789,8.35853576660156,8.35851764678955,8.35849857330322,8.35848045349121,8.35846138000488,8.35844230651855,8.35842418670654,8.35840511322021,8.3583869934082,8.35836791992188,8.35834980010986,8.35833072662354,8.35831260681152,8.3582935333252,8.35827541351318,8.35825634002686,8.35823726654053,8.35821914672852,8.35820007324219,8.35818195343018,8.35816287994385,8.35814476013184,8.35812568664551,8.3581075668335,8.35808849334717,8.35807037353516,8.35805130004883,8.3580322265625,8.35801410675049,8.35799503326416,8.35797691345215,8.35795783996582,8.35793972015381,8.35792064666748,8.35790252685547,8.35788345336914,8.35786533355713,8.3578462600708,8.35782814025879,8.35780906677246,8.35778999328613,8.35777187347412,8.35775279998779,8.35773468017578,8.35771560668945,8.36066055297852,8.3902006149292,8.41995143890381,8.44991302490234,8.4800910949707,8.51048469543457,8.54109668731689,8.57193088531494,8.60298728942871,8.61395645141602,8.61498355865479,8.61600780487061,8.61703300476074,8.6180591583252,8.61908626556396,8.62011051177979,8.62113761901855,8.62216377258301,8.62319183349609,8.62421894073486,8.62524700164795,8.62627506256104,8.62730503082275,8.62833118438721,8.62936305999756,8.63038730621338,8.63141918182373,8.63244819641113,8.63347721099854,8.63450813293457,8.63553619384766,8.63656616210938,8.63759899139404,8.63862705230713,8.63965702056885,8.64069175720215,8.64171981811523,8.6427526473999,8.64378452301025,8.64481544494629,8.64585018157959,8.64688205718994,8.64791488647461,8.64894962310791,8.64998054504395,8.65101337432861,8.65204811096191,8.65308475494385,8.65412139892578,8.65515232086182,8.65618896484375,8.65722370147705,8.65825939178467,8.65929412841797,8.6603307723999,8.6613655090332,8.66240310668945,8.66343975067139,8.66447448730469,8.66551399230957,8.66655158996582,8.66758823394775,8.668625831604,8.66966533660889,8.67070293426514,8.67174243927002,8.6727819442749,8.67382049560547,8.67486000061035,8.6758975982666,8.67693901062012,8.677978515625,8.67901802062988,8.6800594329834,8.68110179901123,8.68214130401611,8.68318271636963,8.68422508239746,8.68526649475098,8.68630886077881,8.68735027313232,8.68839454650879,8.68943786621094,8.69047737121582,8.69152450561523,8.69256591796875,8.69361209869385,8.69465637207031,8.69569969177246,8.69674491882324,8.69779014587402,8.69883441925049,8.69988059997559,8.70092487335205,8.70197200775146,8.70301818847656,8.70406246185303,8.70511245727539,8.70615673065186,8.70720291137695,8.70825386047363,8.70929908752441,8.71034717559814,8.71139526367188,8.71244239807129,8.7134952545166,8.7145414352417,8.71559238433838,8.71664142608643,8.71769237518311,8.7187385559082,8.71979236602783,8.72084045410156,8.72189235687256,8.72294330596924,8.7239933013916,8.72504711151123,8.72609615325928,8.72714710235596,8.7282018661499,8.72925281524658,8.73030471801758,8.73135948181152,8.73241329193115,8.73346614837646,8.73451805114746,8.73557376861572,8.73662853240967,8.7376823425293,8.73873710632324,8.7397928237915,8.74084854125977,8.74190235137939,8.74295997619629,8.74401378631592,8.74507141113281,8.74612712860107,8.74718284606934,8.74824237823486,8.74929809570312,8.75035381317139,8.7514123916626,8.75247192382812,8.75353145599365,8.75459003448486,8.75564765930176,8.7567081451416,8.75776767730713,8.75882625579834,8.75988674163818,8.76094627380371,8.76200675964355,8.7630672454834,8.76412773132324,8.76519012451172,8.76625156402588,8.76731204986572,8.76837539672852,8.76943492889404,8.77049732208252,8.77156257629395,8.77262306213379,8.7736873626709,8.77475166320801,8.7758150100708,8.77687931060791,8.7779426574707,8.77900886535645,8.78007221221924,8.78113842010498,8.78220176696777,8.78326797485352,8.78433513641357,8.78540229797363,8.78646755218506,8.78753185272217,8.78859996795654,8.7896671295166,8.79073429107666,8.79180145263672,8.79286861419678,8.79393768310547,8.79500484466553,8.79607391357422,8.79714393615723,8.79821300506592,8.79928207397461,8.80035209655762,8.80142307281494,8.80249214172363,8.80356407165527,8.80463409423828,8.80570602416992,8.80677700042725,8.80784702301025,8.80891895294189,8.80999088287354,8.81106376647949,8.81213569641113,8.81320953369141,8.81428241729736,8.81535625457764,8.81643009185791,8.81750392913818,8.81857776641846,8.8196496963501,8.820725440979,8.82180023193359,8.8228759765625,8.82395267486572,8.82502841949463,8.82610511779785,8.82717895507812,8.82825565338135
8.35874366760254,8.35872459411621,8.3587064743042,8.35868740081787,8.35866832733154,8.35865020751953,8.3586311340332,8.35861301422119,8.35859394073486,8.35857582092285,8.35855674743652,8.35853862762451,8.35851955413818,8.35850143432617,8.35848236083984,8.35846328735352,8.3584451675415,8.35842609405518,8.35840797424316,8.35838890075684,8.35837078094482,8.3583517074585,8.35833358764648,8.35831451416016,8.35829639434814,8.35827732086182,8.35825824737549,8.35824012756348,8.35822105407715,8.35820293426514,8.35818386077881,8.3581657409668,8.35814666748047,8.35812854766846,8.35810947418213,8.35809135437012,8.35807228088379,8.35805416107178,8.35803508758545,8.35801601409912,8.35799789428711,8.35797882080078,8.35796070098877,8.35794162750244,8.35792350769043,8.3579044342041,8.35788631439209,8.35786724090576,8.35784912109375,8.35783004760742,8.35781097412109,8.36102390289307,8.3905668258667,8.42031955718994,8.45028495788574,8.48046493530273,8.51086139678955,8.52873420715332,8.52973937988281,8.53074264526367,8.5317497253418,8.53275299072266,8.53376197814941,8.53476715087891,8.5357723236084,8.53677845001221,8.53778553009033,8.53879261016846,8.53979969024658,8.54080772399902,8.54181480407715,8.54282283782959,8.54383182525635,8.54484367370605,8.54584884643555,8.54685688018799,8.54786682128906,8.54887676239014,8.54988670349121,8.55089569091797,8.55190753936768,8.55291748046875,8.55392742156982,8.55493927001953,8.55594921112061,8.55695915222168,8.55797100067139,8.55898475646973,8.5599946975708,8.56100940704346,8.56201934814453,8.56303310394287,8.56404590606689,8.56505966186523,8.56607246398926,8.56708812713623,8.56810092926025,8.56911754608154,8.57013130187988,8.57114601135254,8.5721607208252,8.57317447662354,8.57418918609619,8.57520771026611,8.57622051239014,8.57723712921143,8.57825374603271,8.57926940917969,8.58028888702393,8.58130550384521,8.5823221206665,8.58334064483643,8.58435726165771,8.585373878479,8.58639335632324,8.58741283416748,8.58843326568604,8.58945274353027,8.59046936035156,8.5914888381958,8.59251117706299,8.59352874755859,8.59455013275146,8.59557056427002,8.59658813476562,8.59761142730713,8.5986328125,8.5996561050415,8.60067558288574,8.6016960144043,8.6027193069458,8.60374069213867,8.60476493835449,8.60578632354736,8.60680961608887,8.607834815979,8.60885906219482,8.60988235473633,8.61090850830078,8.61193180084229,8.61295509338379,8.61398124694824,8.61500549316406,8.6160306930542,8.61705684661865,8.61808204650879,8.61911010742188,8.6201343536377,8.62115955352783,8.62218856811523,8.62321472167969,8.62424182891846,8.62527084350586,8.626296043396,8.62732410430908,8.62835311889648,8.62938117980957,8.63041305541992,8.63144016265869,8.63246822357178,8.63350009918213,8.63453102111816,8.63555908203125,8.63659000396729,8.63761806488037,8.63865089416504,8.63968086242676,8.64071369171143,8.64174461364746,8.6427755355835,8.64380741119385,8.64484024047852,8.64587306976318,8.64690399169922,8.64793872833252,8.64896965026855,8.65000629425049,8.65103912353516,8.65207195281982,8.65310764312744,8.65414237976074,8.65517520904541,8.65621280670166,8.65724563598633,8.65828323364258,8.65931797027588,8.66035270690918,8.6613883972168,8.66242504119873,8.66346073150635,8.66450023651123,8.66553592681885,8.66657257080078,8.66761207580566,8.66864776611328,8.6696891784668,8.67072677612305,8.6717643737793,8.67280578613281,8.67384338378906,8.67488193511963,8.67592144012451,8.67696285247803,8.67800235748291,8.67904281616211,8.68008422851562,8.68112468719482,8.68216609954834,8.68320751190186,8.68424987792969,8.68528938293457,8.6863317489624,8.68737411499023,8.68841552734375,8.68946075439453,8.69050407409668,8.69154644012451,8.69259071350098,8.69363498687744,8.69467926025391,8.69572353363037,8.6967658996582,8.69781303405762,8.69885730743408,8.69990158081055,8.70095157623291,8.70199394226074,8.70303916931152,8.70408725738525,8.70513439178467,8.70618057250977,8.70722961425781,8.70827579498291,8.70932292938232,8.71037006378174,8.71141815185547,8.71246910095215,8.71351432800293,8.71456336975098,8.71561622619629,8.7166633605957,8.71771240234375,8.71876525878906,8.71981430053711,8.72086334228516,8.72191429138184,8.7229642868042,8.72401714324951,8.72506809234619,8.72611999511719,8.7271728515625,8.72822380065918,8.72927951812744,8.73033142089844,8.73138236999512,8.73243618011475,8.73348999023438,8.73454284667969,8.73559856414795,8.73665046691895,8.73770427703857,8.73875999450684,8.7398157119751,8.74087142944336,8.74192714691162
