13.0365467071533,13.0364923477173,13.0364379882812,13.0363836288452,13.0363302230835,13.0362758636475,13.0362215042114,13.0361671447754,11.6123495101929,11.6123008728027,11.6122531890869,11.6122045516968,11.6121559143066,11.6121082305908,11.6120595932007,11.6120109558105,11.6119632720947,11.6119146347046,11.6118659973145,11.6118183135986,11.6117696762085,11.6117210388184,11.6116733551025,11.6116247177124,11.6115760803223,11.6115283966064,11.6114797592163,11.6114311218262,11.6113834381104,11.6113348007202,11.6112861633301,11.6112375259399,11.6111898422241,11.611141204834,11.6110925674438,11.611044883728,11.6109962463379,11.6109476089478,11.6108999252319,11.6108512878418,11.6108026504517,11.6107549667358,11.6107063293457,11.6106576919556,11.6106100082397,11.6105613708496,11.6105127334595,11.6104650497437,11.6104164123535,11.6103677749634,11.6103200912476,11.6102714538574,11.6102228164673,11.6101751327515,11.6101264953613,11.6100778579712,11.6100301742554,11.6099815368652,11.6099328994751,11.6098852157593,11.6098365783691,11.609787940979,11.6097402572632,11.609691619873,11.6096429824829,11.6095952987671,11.6207065582275,11.6393537521362,11.6580619812012,11.676830291748,11.6956586837769,11.7145490646362,11.7334995269775,11.7718467712402,11.8137989044189,11.8560514450073,11.898606300354,11.9414682388306,11.98464012146,12.0281257629395,12.071928024292,12.1108064651489,12.1357536315918,12.1608028411865,12.1859560012817,12.2112140655518,12.2365760803223,12.2620449066162,12.287618637085,12.3133001327515,12.3390884399414,12.3649854660034,12.3909912109375,12.4171075820923,12.4433326721191,12.4696702957153,12.4961185455322,12.5226793289185,12.5493535995483,12.5761423110962,12.6030445098877,12.6300621032715,12.6571969985962,12.6844472885132,12.7118158340454,12.7393035888672,12.7669095993042,12.7946348190308,12.8224821090698,12.8504495620728,12.8785400390625,12.9395036697388,13.0108213424683,13.0829296112061,13.1558408737183,13.2295703887939,14.9652242660522,14.9816312789917,14.9980735778809,15.014552116394,15.0310668945312,15.0476179122925,15.0642051696777,15.0808296203613,15.0974903106689,15.1141881942749,15.1309232711792,15.1476945877075,15.1645040512085,15.1813507080078,15.1982345581055,15.2151556015015,15.2321147918701,15.2491121292114,15.2661476135254,15.2832202911377,15.300332069397,15.3174819946289,15.3346700668335,15.3518962860107,15.3691625595093,15.3864669799805,15.4038105010986,15.4211931228638,15.4386148452759,15.4560766220093,15.4735774993896,15.491117477417,15.5086984634399,15.5263185501099,15.5439786911011,15.5616788864136,15.5794200897217,15.5972013473511,15.6150236129761,15.6328868865967,15.6507902145386,15.6687355041504,15.6867218017578,15.7047491073608,15.7228174209595,15.7409286499023,15.7590808868408,15.7772750854492,15.7955112457275,15.8137893676758,15.8379211425781,15.868691444397,15.8995819091797,15.9305925369263,17.572244644165,0,0,0,0,0,0,0,0,0,0,0,0,0,0,0,0,0,0,18.3804969787598,18.3712730407715,18.3651695251465,18.3594665527344,18.3520641326904,18.4058437347412,18.5479183197021,0,0,0,0,0,0,0,0,0,0,0,0,0,0,0,0,0,0,0,0,0,0,0,0,0,0,0,0,0,0,0,0,0,0,0,0,0,0,0,0,0,0,0,0,0,0,0,0,0,0,0,0,0,0,0,0,0,0,0,0,0,0,0,0,0,0,0,0,0,0,0,0,0,0,0,0,0,0
13.196834564209,13.1944808959961,13.1921281814575,13.1897754669189,13.187424659729,13.1850738525391,13.1827239990234,13.1803674697876,11.61243724823,11.6123886108398,11.6123399734497,11.6122913360596,11.6122436523438,11.6121950149536,11.6121463775635,11.6120986938477,11.6120500564575,11.6120014190674,11.6119537353516,11.6119050979614,11.6118564605713,11.6118087768555,11.6117601394653,11.6117115020752,11.6116638183594,11.6116151809692,11.6115665435791,11.6115188598633,11.6114702224731,11.611421585083,11.6113739013672,11.6113252639771,11.6112766265869,11.6112279891968,11.611180305481,11.6111316680908,11.6110830307007,11.6110353469849,11.6109867095947,11.6109380722046,11.6108903884888,11.6108417510986,11.6107931137085,11.6107454299927,11.6106967926025,11.6106481552124,11.6106004714966,11.6105518341064,11.6105031967163,11.6104555130005,11.6104068756104,11.6103582382202,11.6103105545044,11.6102619171143,11.6102132797241,11.6101655960083,11.6101169586182,11.610068321228,11.6100206375122,11.6099720001221,11.6099233627319,11.6098756790161,11.609827041626,11.6097784042358,11.60973072052,11.6096820831299,11.6096334457397,11.6247653961182,11.6434268951416,11.6621475219727,11.68092918396,11.6997709274292,11.7186737060547,11.7376375198364,11.7637586593628,11.8056535720825,11.8478469848633,11.8903436660767,11.9331455230713,11.9762573242188,12.019681930542,12.063422203064,12.1074819564819,12.1518650054932,12.1814880371094,12.2067270278931,12.2320709228516,12.2575206756592,12.2830753326416,12.3087377548218,12.3345079421997,12.3603849411011,12.3863716125488,12.412467956543,12.4386739730835,12.464991569519,12.4914197921753,12.5179615020752,12.5446147918701,12.5713834762573,12.5982656478882,12.6252632141113,12.6523761749268,12.6796064376831,12.7069540023804,12.7344198226929,12.7620048522949,12.7897100448608,12.8175344467163,12.8454818725586,12.8735494613647,12.9402265548706,13.0115518569946,13.0836687088013,13.1565885543823,13.2303199768066,14.8949174880981,14.9111700057983,14.9274578094482,14.9437818527222,14.9601411819458,14.9765357971191,14.9929676055908,15.0094347000122,15.0259380340576,15.0424776077271,15.0590543746948,15.0756673812866,15.0923166275024,15.1090030670166,15.1257257461548,15.1424865722656,15.1592836380005,15.176118850708,15.1929912567139,15.2099008560181,15.2268486022949,15.2438335418701,15.2608575820923,15.2779188156128,15.295018196106,15.3121557235718,15.3293323516846,15.34654712677,15.3638010025024,15.3810930252075,15.3984241485596,15.4157953262329,15.4332046508789,15.4506540298462,15.4681425094604,15.4856700897217,15.5032386779785,15.5208463668823,15.5384941101074,15.5561828613281,15.5739107131958,15.5916795730591,15.609489440918,15.6273393630981,15.6452302932739,15.6631631851196,15.6811361312866,15.6991500854492,15.7172069549561,15.7353038787842,15.7534437179565,15.7716245651245,15.7898473739624,15.8081130981445,15.8285074234009,15.8592414855957,15.8900947570801,17.2586803436279,0,0,0,0,0,0,0,0,0,0,0,0,0,0,0,18.3803405761719,18.3711185455322,18.3621559143066,18.3565578460693,18.3509635925293,18.3445701599121,18.33717918396,18.4773960113525,18.6205825805664,0,0,0,0,0,0,0,0,0,0,0,0,0,0,0,0,0,0,0,0,0,0,0,0,0,0,0,0,0,0,0,0,0,0,0,0,0,0,0,0,0,0,0,0,0,0,0,0,0,0,0,0,0,0,0,0,0,0,0,0,0,0,0,0,0,0,0,0,0,0,0,0,0,0,0,0
13.2655363082886,13.2654819488525,13.2654266357422,13.2653713226318,13.2653160095215,13.2652606964111,13.2652053833008,13.2651500701904,11.6125240325928,11.6124753952026,11.6124277114868,11.6123790740967,11.6123304367065,11.6122817993164,11.6122341156006,11.6121854782104,11.6121368408203,11.6120891571045,11.6120405197144,11.6119918823242,11.6119441986084,11.6118955612183,11.6118469238281,11.6117992401123,11.6117506027222,11.611701965332,11.6116542816162,11.6116056442261,11.6115570068359,11.6115093231201,11.61146068573,11.6114120483398,11.611364364624,11.6113157272339,11.6112670898438,11.6112184524536,11.6111707687378,11.6111221313477,11.6110734939575,11.6110258102417,11.6109771728516,11.6109285354614,11.6108808517456,11.6108322143555,11.6107835769653,11.6107358932495,11.6106872558594,11.6106386184692,11.6105909347534,11.6105422973633,11.6104936599731,11.6104459762573,11.6103973388672,11.6103487014771,11.6103010177612,11.6102523803711,11.610203742981,11.6101560592651,11.610107421875,11.6100587844849,11.610011100769,11.6099624633789,11.6099138259888,11.6098661422729,11.6098175048828,11.6097688674927,11.6097211837769,11.6102132797241,11.6288280487061,11.6475019454956,11.6662359237671,11.6850299835205,11.7038860321045,11.7228021621704,11.7417793273926,11.7608184814453,11.7975187301636,11.839653968811,11.8820915222168,11.9248342514038,11.9678859710693,12.0112495422363,12.0549287796021,12.0989265441895,12.1432466506958,12.187891960144,12.2275686264038,12.2529993057251,12.2785358428955,12.3041791915894,12.3299293518066,12.355788230896,12.3817558288574,12.4078321456909,12.4340190887451,12.46031665802,12.4867248535156,12.5132465362549,12.5398807525635,12.5666275024414,12.5934896469116,12.6204671859741,12.6475601196289,12.6747694015503,12.7020959854126,12.7295408248901,12.7571048736572,12.7847881317139,12.8125915527344,12.8405160903931,12.8703937530518,12.9409494400024,13.0122833251953,13.0844078063965,13.1573362350464,13.2310619354248,14.825267791748,14.8413686752319,14.8575048446655,14.8736753463745,14.8898811340332,14.9061231613159,14.922399520874,14.9387121200562,14.9550609588623,14.9714450836182,14.9878644943237,15.0043210983276,15.0208129882812,15.0373420715332,15.0539064407349,15.0705080032349,15.0871467590332,15.1038208007812,15.120532989502,15.1372814178467,15.1540679931641,15.1708908081055,15.1877517700195,15.2046499252319,15.2215852737427,15.2385597229004,15.2555704116821,15.2726202011108,15.2897081375122,15.3068342208862,15.3239984512329,15.3412008285522,15.3584423065186,15.3757228851318,15.3930425643921,15.410400390625,15.4277982711792,15.4452352523804,15.4627113342285,15.4802274703979,15.4977827072144,15.5153779983521,15.5330142974854,15.5506896972656,15.5684051513672,15.5861616134644,15.6039590835571,15.6217966079712,15.6396741867065,15.6575937271118,15.6755542755127,15.6935558319092,15.7115993499756,15.7296838760376,15.7478103637695,15.7659788131714,15.7841882705688,15.8024406433105,15.8207349777222,15.8498029708862,16.9561100006104,0,0,0,0,0,0,0,0,0,0,0,0,18.3801860809326,18.3709621429443,18.3617477416992,18.3535480499268,18.3479557037354,18.3423671722412,18.3367805480957,18.3296966552734,18.4074058532715,18.5495071411133,18.6938171386719,0,0,0,0,0,0,0,0,0,0,0,0,0,0,0,0,0,0,0,0,0,0,0,0,0,0,0,0,0,0,0,0,0,0,0,0,0,0,0,0,0,0,0,0,0,0,0,0,0,0,0,0,0,0,0,0,0,0,0,0,0,0,0,0,0,0,0,0,0,0,0,0,0,0
13.2656364440918,13.2655811309814,13.2655258178711,13.2654705047607,13.2654151916504,13.26535987854,13.2653045654297,13.2652492523193,11.6126108169556,11.6125631332397,11.6125144958496,11.6124658584595,11.6124181747437,11.6123695373535,11.6123208999634,11.6122722625732,11.6122245788574,11.6121759414673,11.6121273040771,11.6120796203613,11.6120309829712,11.6119823455811,11.6119346618652,11.6118860244751,11.611837387085,11.6117897033691,11.611741065979,11.6116924285889,11.611644744873,11.6115961074829,11.6115474700928,11.611499786377,11.6114511489868,11.6114025115967,11.6113538742065,11.6113061904907,11.6112575531006,11.6112089157104,11.6111612319946,11.6111125946045,11.6110639572144,11.6110162734985,11.6109676361084,11.6109189987183,11.6108713150024,11.6108226776123,11.6107740402222,11.6107263565063,11.6106777191162,11.6106290817261,11.6105813980103,11.6105327606201,11.61048412323,11.6104364395142,11.610387802124,11.6103391647339,11.6102914810181,11.6102428436279,11.6101942062378,11.610146522522,11.6100978851318,11.6100492477417,11.6100015640259,11.6099529266357,11.6099042892456,11.6098566055298,11.6098079681396,11.6097593307495,11.6142654418945,11.6328926086426,11.6515798568726,11.6703271865845,11.6891345977783,11.7080030441284,11.7269325256348,11.7459230422974,11.7649755477905,11.7893953323364,11.8314723968506,11.873851776123,11.9165353775024,11.9595260620117,12.0028295516968,12.0464468002319,12.0903825759888,12.1346397399902,12.1792221069336,12.2241334915161,12.2693777084351,12.2996244430542,12.3253555297852,12.3511943817139,12.377142906189,12.4032001495361,12.4293670654297,12.4556446075439,12.4820337295532,12.5085344314575,12.5351486206055,12.5618762969971,12.5887184143066,12.6156740188599,12.642746925354,12.6699352264404,12.6972417831421,12.7246656417847,12.7522077560425,12.7798700332642,12.8076524734497,12.8355560302734,12.8711090087891,12.9416732788086,13.013014793396,13.0851469039917,13.158073425293,13.231803894043,14.7562665939331,14.7722177505493,14.7882032394409,14.8042240142822,14.8202791213989,14.8363695144653,14.8524942398071,14.8686532974243,14.8848485946655,14.9010791778564,14.9173450469971,14.9336471557617,14.9499845504761,14.9663572311401,14.9827661514282,14.999210357666,15.0156917572021,15.0322093963623,15.0487623214722,15.0653524398804,15.0819797515869,15.0986433029175,15.1153430938721,15.1320810317993,15.1488552093506,15.1656665802002,15.1825160980225,15.1994028091431,15.216326713562,15.2332887649536,15.2502880096436,15.2673254013062,15.2844018936157,15.3015155792236,15.3186683654785,15.3358592987061,15.3530883789062,15.3703565597534,15.3876638412476,15.4050102233887,15.4223957061768,15.4398202896118,15.4572839736938,15.4747877120972,15.4923315048218,15.5099143981934,15.5275373458862,15.5452003479004,15.5629043579102,15.5806474685669,15.5984315872192,15.6162567138672,15.6341228485107,15.6520290374756,15.6699771881104,15.6879653930664,15.7059965133667,15.7240676879883,15.7421808242798,15.7603368759155,15.7785339355469,15.7967729568481,15.8150539398193,16.6639652252197,18.5520572662354,0,0,0,0,0,0,0,0,18.3800296783447,18.3708076477051,18.36159324646,18.352388381958,18.3449478149414,18.3393611907959,18.333776473999,18.328197479248,18.3222198486328,18.314847946167,18.4789714813232,18.6221828460693,0,0,0,0,0,0,0,0,0,0,0,0,0,0,0,0,0,0,0,0,0,0,0,0,0,0,0,0,0,0,0,0,0,0,0,0,0,0,0,0,0,0,0,0,0,0,0,0,0,0,0,0,0,0,0,0,0,0,0,0,0,0,0,0,0,0,0,0,0,0,0,0,0
13.2657356262207,13.2656803131104,13.265625,13.2655696868896,13.2655153274536,13.2654600143433,13.2654047012329,13.2653493881226,11.6126985549927,11.6126499176025,11.6126012802124,11.6125535964966,11.6125049591064,11.6124563217163,11.6124086380005,11.6123600006104,11.6123113632202,11.6122627258301,11.6122150421143,11.6121664047241,11.612117767334,11.6120700836182,11.612021446228,11.6119728088379,11.6119251251221,11.6118764877319,11.6118278503418,11.611780166626,11.6117315292358,11.6116828918457,11.6116352081299,11.6115865707397,11.6115379333496,11.6114902496338,11.6114416122437,11.6113929748535,11.6113443374634,11.6112966537476,11.6112480163574,11.6111993789673,11.6111516952515,11.6111030578613,11.6110544204712,11.6110067367554,11.6109580993652,11.6109094619751,11.6108617782593,11.6108131408691,11.610764503479,11.6107168197632,11.610668182373,11.6106195449829,11.6105718612671,11.610523223877,11.6104745864868,11.610426902771,11.6103782653809,11.6103296279907,11.6102819442749,11.6102333068848,11.6101846694946,11.6101369857788,11.6100883483887,11.6100397109985,11.6099920272827,11.6099433898926,11.6098947525024,11.6098470687866,11.6097984313965,11.6183204650879,11.6369600296021,11.6556606292725,11.6744213104248,11.6932420730591,11.7121238708496,11.7310667037964,11.7500705718994,11.769136428833,11.7882642745972,11.8233022689819,11.8656225204468,11.9082469940186,11.9511785507202,11.994421005249,12.0379772186279,12.0818510055542,12.1260461807251,12.1705656051636,12.2154121398926,12.260591506958,12.3061065673828,12.346604347229,12.3725328445435,12.3985710144043,12.4247188568115,12.4509763717651,12.4773464202881,12.5038270950317,12.530421257019,12.5571279525757,12.5839500427246,12.6108856201172,12.6379375457764,12.6651058197021,12.6923904418945,12.7197933197021,12.747314453125,12.7749557495117,12.802716255188,12.8305988311768,12.8718252182007,12.9423961639404,13.0137462615967,13.0858860015869,13.1588068008423,13.2325458526611,14.6879053115845,14.7037086486816,14.7195463180542,14.7354183197021,14.7513246536255,14.7672643661499,14.783239364624,14.7992486953735,14.8152933120728,14.8313722610474,14.8474864959717,14.8636360168457,14.8798198699951,14.8960390090942,14.9122943878174,14.9285850524902,14.9449110031128,14.9612722396851,14.9776706695557,14.994104385376,15.010573387146,15.0270795822144,15.0436220169067,15.0602006912231,15.0768165588379,15.0934686660767,15.1101570129395,15.1268835067749,15.1436462402344,15.1604461669922,15.1772832870483,15.1941585540771,15.2110710144043,15.2280206680298,15.2450094223022,15.2620344161987,15.2790985107422,15.2962007522583,15.3133411407471,15.3305206298828,15.3477382659912,15.3649940490723,15.3822889328003,15.3996238708496,15.4169969558716,15.4344091415405,15.4518613815308,15.4693517684937,15.4868831634521,15.5044536590576,15.5225477218628,15.5423831939697,15.5622692108154,15.5822057723999,15.6021938323975,15.6222333908081,15.6423244476318,15.6624670028687,15.6826610565186,15.7029075622559,15.7232065200806,15.7391939163208,15.7488079071045,15.75843334198,15.7680711746216,15.8912839889526,16.3817176818848,18.2028980255127,0,0,0,0,18.3867816925049,18.3798732757568,18.3706512451172,18.3614368438721,18.3522338867188,18.34303855896,18.3363571166992,18.330774307251,18.3251953125,18.3196201324463,18.3140487670898,18.3073844909668,18.4089698791504,18.5510940551758,18.6954307556152,0,0,0,0,0,0,0,0,0,0,0,0,0,0,0,0,0,0,0,0,0,0,0,0,0,0,0,0,0,0,0,0,0,0,0,0,0,0,0,0,0,0,0,0,0,0,0,0,0,0,0,0,0,0,0,0,0,0,0,0,0,0,0,0,0,0,0,0,0,0,0
13.2658357620239,13.2657804489136,13.2657251358032,13.2656698226929,13.2656145095825,13.2655591964722,13.2655038833618,13.2654485702515,11.6127853393555,11.6127367019653,11.6126890182495,11.6126403808594,11.6125917434692,11.6125440597534,11.6124954223633,11.6124467849731,11.612398147583,11.6123504638672,11.6123018264771,11.6122531890869,11.6122055053711,11.612156867981,11.6121082305908,11.612060546875,11.6120119094849,11.6119632720947,11.6119155883789,11.6118669509888,11.6118183135986,11.6117706298828,11.6117219924927,11.6116733551025,11.6116256713867,11.6115770339966,11.6115283966064,11.6114807128906,11.6114320755005,11.6113834381104,11.6113348007202,11.6112871170044,11.6112384796143,11.6111898422241,11.6111421585083,11.6110935211182,11.611044883728,11.6109972000122,11.6109485626221,11.6108999252319,11.6108522415161,11.610803604126,11.6107549667358,11.61070728302,11.6106586456299,11.6106100082397,11.6105623245239,11.6105136871338,11.6104650497437,11.6104173660278,11.6103687286377,11.6103200912476,11.6102724075317,11.6102237701416,11.6101751327515,11.6101274490356,11.6100788116455,11.6100301742554,11.6099824905396,11.6099338531494,11.6098852157593,11.6098375320435,11.6223773956299,11.6410312652588,11.6597442626953,11.6785182952881,11.6973524093628,11.7162475585938,11.735203742981,11.7542209625244,11.7733001708984,11.792441368103,11.8151435852051,11.8574047088623,11.8999700546265,11.9428424835205,11.9860239028931,12.0295190811157,12.0733318328857,12.1174640655518,12.161919593811,12.2067041397095,12.2518186569214,12.2972679138184,12.3430557250977,12.3891859054565,12.4200735092163,12.4463119506836,12.4726619720459,12.4991226196289,12.5256967544556,12.5523834228516,12.5791845321655,12.6061000823975,12.633131980896,12.6602792739868,12.6875429153442,12.7149257659912,12.7424259185791,12.7700452804565,12.7977848052979,12.8256454467773,12.872540473938,12.9431200027466,13.014476776123,13.0866117477417,13.1595411300659,13.2332878112793,14.6201734542847,14.6358318328857,14.6515235900879,14.6672487258911,14.6830081939697,14.6988010406494,14.7146282196045,14.730489730835,14.7463846206665,14.7623147964478,14.7782793045044,14.7942771911621,14.8103113174438,14.826379776001,14.8424825668335,14.8586206436157,14.8747940063477,14.8910026550293,14.9072465896606,14.9235258102417,14.9398412704468,14.9561920166016,14.9725780487061,14.9890003204346,15.0054597854614,15.0219535827637,15.0384855270386,15.0550527572632,15.0716562271118,15.0882968902588,15.1049747467041,15.1216888427734,15.1384401321411,15.1552295684814,15.1720552444458,15.1889181137085,15.2058191299438,15.2239446640015,15.2430238723755,15.262149810791,15.281325340271,15.3005475997925,15.3198194503784,15.3391399383545,15.3585081100464,15.3779258728027,15.3973932266235,15.4169092178345,15.4364757537842,15.456090927124,15.4757566452026,15.4954719543457,15.5152387619019,15.5350551605225,15.5549221038818,15.57483959198,15.5948085784912,15.6148290634155,15.6349010467529,15.6497659683228,15.6592702865601,15.6687870025635,15.6783151626587,15.6878547668457,15.6974058151245,15.7069692611694,15.7165431976318,15.808650970459,16.178991317749,16.6252975463867,17.8666362762451,18.3852272033691,18.3813610076904,18.3774967193604,18.3704948425293,18.3612823486328,18.3520774841309,18.3428821563721,18.3336963653564,18.3277740478516,18.3221969604492,18.3166236877441,18.3110523223877,18.3054866790771,18.2999229431152,18.2925720214844,18.4805469512939,18.6237831115723,0,0,0,0,0,0,0,0,0,0,0,0,0,0,0,0,0,0,0,0,0,0,0,0,0,0,0,0,0,0,0,0,0,0,0,0,0,0,0,0,0,0,0,0,0,0,0,0,0,0,0,0,0,0,0,0,0,0,0,0,0,0,0,0,0,0,0,0,0,0
13.2659349441528,13.2658796310425,13.2658243179321,13.2657690048218,13.2657136917114,13.2656583786011,13.2656030654907,13.2655487060547,11.6128721237183,11.6128244400024,11.6127758026123,11.6127271652222,11.6126794815063,11.6126308441162,11.6125822067261,11.6125345230103,11.6124858856201,11.61243724823,11.6123886108398,11.612340927124,11.6122922897339,11.6122436523438,11.6121959686279,11.6121473312378,11.6120986938477,11.6120510101318,11.6120023727417,11.6119537353516,11.6119060516357,11.6118574142456,11.6118087768555,11.6117610931396,11.6117124557495,11.6116638183594,11.6116161346436,11.6115674972534,11.6115188598633,11.6114702224731,11.6114225387573,11.6113739013672,11.6113252639771,11.6112775802612,11.6112289428711,11.611180305481,11.6111326217651,11.611083984375,11.6110353469849,11.610987663269,11.6109390258789,11.6108903884888,11.6108427047729,11.6107940673828,11.6107454299927,11.6106977462769,11.6106491088867,11.6106004714966,11.6105527877808,11.6105041503906,11.6104555130005,11.6104078292847,11.6103591918945,11.6103105545044,11.6102628707886,11.6102142333984,11.6101655960083,11.6101179122925,11.6100692749023,11.6100206375122,11.6099729537964,11.6099243164062,11.6098756790161,11.6264381408691,11.6451044082642,11.6638307571411,11.6826181411743,11.7014656066895,11.7203731536865,11.7393426895142,11.7583742141724,11.7774667739868,11.7966222763062,11.8158388137817,11.8491992950439,11.8917055130005,11.9345178604126,11.9776391983032,12.0210733413696,12.0648241043091,12.1088943481445,12.1532869338989,12.1980075836182,12.2430572509766,12.28844165802,12.3341636657715,12.3802270889282,12.4266357421875,12.4679803848267,12.4944219589233,12.5209760665894,12.5476427078247,12.574423789978,12.6013193130493,12.6283292770386,12.6554565429688,12.6827001571655,12.7100610733032,12.7375402450562,12.7651386260986,12.792857170105,12.8206958770752,12.8732557296753,12.9438428878784,13.0152034759521,13.0873374938965,13.1602745056152,13.2340297698975,14.5530643463135,14.5685787200928,14.5841264724731,14.5997076034546,14.6153221130371,14.6309690475464,14.6466503143311,14.6623659133911,14.6781139373779,14.6938972473145,14.7097129821777,14.7255640029907,14.7414484024048,14.7573680877686,14.7733211517334,14.7893095016479,14.8053321838379,14.8213891983032,14.8374824523926,14.853609085083,14.8697719573975,14.8859691619873,14.9022026062012,14.9184703826904,14.9366130828857,14.9549779891968,14.9733877182007,14.9918432235718,15.0103445053101,15.0288915634155,15.0474843978882,15.066123008728,15.0848083496094,15.1035404205322,15.1223182678223,15.1411428451538,15.1600151062012,15.1789331436157,15.1978998184204,15.2169132232666,15.2359743118286,15.2550840377808,15.2742404937744,15.2934455871582,15.3126993179321,15.3320016860962,15.3513526916504,15.3707523345947,15.3902006149292,15.4096994400024,15.4292469024658,15.4488439559937,15.4684906005859,15.488187789917,15.5079355239868,15.5277328491211,15.5475816726685,15.5613479614258,15.5707454681396,15.5801544189453,15.5895757675171,15.5990076065063,15.6084508895874,15.6179056167603,15.6273717880249,15.6368494033813,15.6463384628296,15.6558389663696,15.6653518676758,15.766884803772,16.0388069152832,16.4773082733154,16.9404602050781,17.542573928833,18.3682231903076,18.3611259460449,18.3519229888916,18.3427276611328,18.3335418701172,18.3247718811035,18.3191967010498,18.3136253356934,18.3080577850342,18.3024921417236,18.296932220459,18.291374206543,18.2851257324219,18.4105339050293,18.5526828765869,18.69704246521,0,0,0,0,0,0,0,0,0,0,0,0,0,0,0,0,0,0,0,0,0,0,0,0,0,0,0,0,0,0,0,0,0,0,0,0,0,0,0,0,0,0,0,0,0,0,0,0,0,0,0,0,0,0,0,0,0,0,0,0,0,0,0,0,0,0,0,0
13.2660341262817,13.2659788131714,13.2659244537354,13.265869140625,13.2658138275146,13.2657585144043,13.2657032012939,13.2656478881836,11.6129598617554,11.6129112243652,11.6128625869751,11.6128149032593,11.6127662658691,11.612717628479,11.6126699447632,11.612621307373,11.6125726699829,11.6125249862671,11.612476348877,11.6124277114868,11.6123790740967,11.6123313903809,11.6122827529907,11.6122341156006,11.6121864318848,11.6121377944946,11.6120891571045,11.6120414733887,11.6119928359985,11.6119441986084,11.6118965148926,11.6118478775024,11.6117992401123,11.6117515563965,11.6117029190063,11.6116542816162,11.6116065979004,11.6115579605103,11.6115093231201,11.61146068573,11.6114130020142,11.611364364624,11.6113157272339,11.6112680435181,11.6112194061279,11.6111707687378,11.611123085022,11.6110744476318,11.6110258102417,11.6109781265259,11.6109294891357,11.6108808517456,11.6108331680298,11.6107845306396,11.6107358932495,11.6106882095337,11.6106395721436,11.6105909347534,11.6105432510376,11.6104946136475,11.6104459762573,11.6103982925415,11.6103496551514,11.6103010177612,11.6102533340454,11.6102046966553,11.6101560592651,11.6101083755493,11.6100597381592,11.610011100769,11.6099634170532,11.6118822097778,11.6305017471313,11.6491813659668,11.6679201126099,11.6867208480835,11.7055807113647,11.7245025634766,11.7434854507446,11.7625303268433,11.7816362380981,11.8008050918579,11.8200359344482,11.8410043716431,11.883451461792,11.9262046813965,11.9692659378052,12.0126390457153,12.0563287734985,12.1003360748291,12.1446666717529,12.189323425293,12.2343091964722,12.2796287536621,12.3252849578857,12.3712816238403,12.4176235198975,12.4643135070801,12.5113563537598,12.5429058074951,12.5696659088135,12.5965414047241,12.6235313415527,12.6506376266479,12.6778602600098,12.7052001953125,12.7326583862305,12.760235786438,12.7879323959351,12.8157501220703,12.8739719390869,12.9445667266846,13.0159215927124,13.0880632400513,13.1610078811646,13.2347717285156,14.4865674972534,14.5019407272339,14.5173463821411,14.5327854156494,14.5482568740845,14.5637607574463,14.5792980194092,14.5948696136475,14.6104726791382,14.6261100769043,14.6422777175903,14.6599254608154,14.6776161193848,14.6953496932983,14.7131261825562,14.7309446334839,14.7488079071045,14.766713142395,14.7846632003784,14.8026561737061,14.8206930160522,14.838773727417,14.8568992614746,14.8750686645508,14.8932819366455,14.9115409851074,14.9298439025879,14.9481925964355,14.9665861129761,14.9850254058838,15.0035095214844,15.0220394134521,15.0406150817871,15.0592374801636,15.0779047012329,15.0966196060181,15.1153802871704,15.1341876983643,15.1530427932739,15.1719436645508,15.1908922195435,15.209888458252,15.2289323806763,15.2480239868164,15.2671632766724,15.2863502502441,15.3055858612061,15.3248701095581,15.3442029953003,15.3635845184326,15.3830156326294,15.4024953842163,15.4220247268677,15.4416036605835,15.4612321853638,15.4739236831665,15.4832162857056,15.4925193786621,15.5018339157104,15.5111598968506,15.5204973220825,15.5298461914062,15.5392055511475,15.5485773086548,15.5579595565796,15.5673532485962,15.5767583847046,15.5861749649048,15.5956020355225,15.6050415039062,15.6144924163818,15.7253379821777,15.9010324478149,16.3319301605225,16.7868347167969,17.2678050994873,17.7771492004395,18.3425731658936,18.3333873748779,18.3242111206055,18.3162002563477,18.3106307983398,18.3050632476807,18.2995014190674,18.2939414978027,18.2883853912354,18.2828311920166,18.2772827148438,18.2703495025635,18.4821224212646,18.6253833770752,0,0,0,0,0,0,0,0,0,0,0,0,0,0,0,0,0,0,0,0,0,0,0,0,0,0,0,0,0,0,0,0,16.9291477203369,16.9169673919678,0,0,0,0,0,0,0,0,0,0,0,0,0,0,0,0,0,0,0,0,0,0,0,0,0,0,0,0,0,0,0,0,0
13.266134262085,13.2660789489746,13.2660236358643,13.2659683227539,13.2659130096436,13.2658576965332,13.2658023834229,13.2657470703125,11.6130466461182,11.612998008728,11.6129503250122,11.6129016876221,11.6128530502319,11.6128053665161,11.612756729126,11.6127080917358,11.61266040802,11.6126117706299,11.6125631332397,11.6125154495239,11.6124668121338,11.6124181747437,11.6123695373535,11.6123218536377,11.6122732162476,11.6122245788574,11.6121768951416,11.6121282577515,11.6120796203613,11.6120319366455,11.6119832992554,11.6119346618652,11.6118869781494,11.6118383407593,11.6117897033691,11.6117420196533,11.6116933822632,11.611644744873,11.6115970611572,11.6115484237671,11.611499786377,11.6114511489868,11.611403465271,11.6113548278809,11.6113061904907,11.6112585067749,11.6112098693848,11.6111612319946,11.6111135482788,11.6110649108887,11.6110162734985,11.6109685897827,11.6109199523926,11.6108713150024,11.6108236312866,11.6107749938965,11.6107263565063,11.6106786727905,11.6106300354004,11.6105813980103,11.6105337142944,11.6104850769043,11.6104364395142,11.6103887557983,11.6103401184082,11.6102914810181,11.6102437973022,11.6101951599121,11.610146522522,11.6100988388062,11.610050201416,11.6100015640259,11.6159353256226,11.6345672607422,11.6532602310181,11.6720132827759,11.6908264160156,11.7096996307373,11.7286348342896,11.747631072998,11.7666893005371,11.7858085632324,11.8049907684326,11.8242359161377,11.8435430526733,11.8752098083496,11.9179029464722,11.9609041213989,12.0042171478271,12.0478448867798,12.0917911529541,12.136058807373,12.1806516647339,12.2255735397339,12.2708282470703,12.3164186477661,12.3623495101929,12.4086236953735,12.4552459716797,12.5022201538086,12.5495500564575,12.5917663574219,12.6187362670898,12.6458225250244,12.6730241775513,12.700343132019,12.7277803421021,12.7553367614746,12.7830123901367,12.8108081817627,12.8746871948242,12.9452810287476,13.0166397094727,13.0887889862061,13.1617422103882,13.2355136871338,14.4274482727051,14.4445829391479,14.4617567062378,14.4789724349976,14.4962282180786,14.5135259628296,14.5308647155762,14.5482444763184,14.5656661987305,14.5831298828125,14.6006355285645,14.6181831359863,14.6357736587524,14.6534061431885,14.6710805892944,14.6887979507446,14.7065582275391,14.7243614196777,14.742208480835,14.7600984573364,14.7780313491821,14.7960081100464,14.8140287399292,14.8320941925049,14.8502025604248,14.8683557510376,14.8865528106689,14.9047946929932,14.9230823516846,14.9414138793945,14.9597902297974,14.9782123565674,14.9966802597046,15.0151929855347,15.0337524414062,15.052357673645,15.0710077285767,15.0897054672241,15.1084489822388,15.1272392272949,15.1460762023926,15.1649608612061,15.1838912963867,15.2028703689575,15.2218961715698,15.2409696578979,15.2600917816162,15.2792615890503,15.2984790802002,15.3177452087402,15.3370599746704,15.356424331665,15.3758363723755,15.3874759674072,15.3966646194458,15.4058647155762,15.415075302124,15.4242973327637,15.4335298538208,15.4427738189697,15.4520292282104,15.4612951278687,15.4705724716187,15.4798612594604,15.4891605377197,15.4984712600708,15.5077934265137,15.5171270370483,15.5264711380005,15.5358266830444,15.5451936721802,15.5545721054077,15.5639619827271,15.684009552002,15.8252973556519,16.1890964508057,16.6359691619873,17.108211517334,17.6080474853516,18.1379699707031,18.3148899078369,18.3076343536377,18.3020706176758,18.2965087890625,18.2909507751465,18.2853965759277,18.2798461914062,18.2742977142334,18.2687530517578,18.2629203796387,18.4120979309082,18.554271697998,18.6986560821533,0,0,0,0,0,0,0,0,0,0,0,0,0,0,0,0,0,0,0,0,0,0,0,0,0,0,16.9339656829834,16.9217796325684,16.9096126556396,16.8974628448486,16.8853282928467,16.8732089996338,16.9113349914551,0,0,0,0,0,0,0,0,0,0,0,0,0,0,0,0,0,0,0,0,0,0,0,0,0,0,0,0,0,0,0,0
13.2662334442139,13.2661781311035,13.2661228179932,13.2660675048828,13.2660121917725,13.2659578323364,13.2659025192261,13.2658472061157,11.613133430481,11.6130857467651,11.613037109375,11.6129884719849,11.612940788269,11.6128921508789,11.6128435134888,11.6127958297729,11.6127471923828,11.6126985549927,11.6126508712769,11.6126022338867,11.6125535964966,11.6125049591064,11.6124572753906,11.6124086380005,11.6123600006104,11.6123123168945,11.6122636795044,11.6122150421143,11.6121673583984,11.6121187210083,11.6120700836182,11.6120223999023,11.6119737625122,11.6119251251221,11.6118774414062,11.6118288040161,11.611780166626,11.6117324829102,11.61168384552,11.6116352081299,11.6115875244141,11.6115388870239,11.6114902496338,11.6114416122437,11.6113939285278,11.6113452911377,11.6112966537476,11.6112489700317,11.6112003326416,11.6111516952515,11.6111040115356,11.6110553741455,11.6110067367554,11.6109590530396,11.6109104156494,11.6108617782593,11.6108140945435,11.6107654571533,11.6107168197632,11.6106691360474,11.6106204986572,11.6105718612671,11.6105241775513,11.6104755401611,11.610426902771,11.6103792190552,11.610330581665,11.6102819442749,11.6102342605591,11.6101856231689,11.6101369857788,11.610089302063,11.6100406646729,11.6199913024902,11.6386365890503,11.6573419570923,11.6761083602905,11.6949348449707,11.7138214111328,11.7327699661255,11.7517795562744,11.7708511352539,11.789984703064,11.8091802597046,11.8284387588501,11.8477602005005,11.8671445846558,11.9096126556396,11.9525547027588,11.9958066940308,12.0393733978271,12.0832567214966,12.127462387085,12.1719923019409,12.2168502807617,12.2620401382446,12.3075647354126,12.3534297943115,12.39963722229,12.446192741394,12.4930982589722,12.540358543396,12.5879783630371,12.6359605789185,12.66819190979,12.6954898834229,12.7229061126709,12.7504415512085,12.7780952453613,12.8058700561523,12.8754034042358,12.9459915161133,13.0173568725586,13.0895147323608,13.1624765396118,13.236255645752,14.3870182037354,14.4040555953979,14.4211339950562,14.4382524490356,14.4554119110107,14.4726123809814,14.4898529052734,14.5071353912354,14.5244588851929,14.541823387146,14.559229850769,14.576678276062,14.5941686630249,14.6117010116577,14.6292753219604,14.6468915939331,14.66455078125,14.6822519302368,14.6999969482422,14.7177848815918,14.7356147766113,14.7534885406494,14.7714061737061,14.7893667221069,14.8073711395264,14.8254194259644,14.8435125350952,14.8616485595703,14.8798303604126,14.8980560302734,14.9163255691528,14.9346408843994,14.9530010223389,14.9714069366455,14.989857673645,15.0083532333374,15.0268955230713,15.0454835891724,15.0641174316406,15.0827980041504,15.1015243530273,15.1202974319458,15.1391172409058,15.1579837799072,15.1768970489502,15.1958589553833,15.2148666381836,15.233922958374,15.2530269622803,15.2721786499023,15.2913789749146,15.3019886016846,15.3110752105713,15.3201732635498,15.3292818069458,15.3384017944336,15.3475322723389,15.3566732406616,15.3658256530762,15.3749885559082,15.384162902832,15.3933477401733,15.4025430679321,15.4117498397827,15.4209680557251,15.430196762085,15.4394369125366,15.4486885070801,15.457950592041,15.4672241210938,15.476508140564,15.485803604126,15.4951105117798,15.5044288635254,15.5137577056885,15.6428985595703,15.7834424972534,16.0487384796143,16.4877891540527,16.9515399932861,17.4421329498291,17.9619674682617,18.2990779876709,18.2935180664062,18.2879619598389,18.2824096679688,18.2768611907959,18.2713146209717,18.2657718658447,18.260232925415,18.2546977996826,18.2481803894043,18.483699798584,18.6269836425781,0,0,0,0,0,0,0,0,0,0,0,0,0,0,0,0,0,0,0,0,0,0,16.9265918731689,16.9144172668457,16.9022598266602,16.8901214599609,16.8779983520508,16.865894317627,16.8538055419922,16.8417320251465,16.8296756744385,16.8176364898682,16.9485988616943,0,0,0,0,0,0,0,0,0,0,0,0,0,0,0,0,0,0,0,0,0,0,0,0,0,0,0,0,0,0,0
13.2663335800171,13.2662782669067,13.2662229537964,13.266167640686,13.2661123275757,13.2660570144653,13.266001701355,13.2659463882446,11.6132211685181,11.6131725311279,11.6131238937378,11.613076210022,11.6130275726318,11.6129789352417,11.6129312515259,11.6128826141357,11.6128339767456,11.6127862930298,11.6127376556396,11.6126890182495,11.6126413345337,11.6125926971436,11.6125440597534,11.6124954223633,11.6124477386475,11.6123991012573,11.6123504638672,11.6123027801514,11.6122541427612,11.6122055053711,11.6121578216553,11.6121091842651,11.612060546875,11.6120128631592,11.611964225769,11.6119155883789,11.6118679046631,11.6118192672729,11.6117706298828,11.611722946167,11.6116743087769,11.6116256713867,11.6115770339966,11.6115293502808,11.6114807128906,11.6114320755005,11.6113843917847,11.6113357543945,11.6112871170044,11.6112394332886,11.6111907958984,11.6111421585083,11.6110944747925,11.6110458374023,11.6109972000122,11.6109495162964,11.6109008789062,11.6108522415161,11.6108045578003,11.6107559204102,11.61070728302,11.6106595993042,11.6106109619141,11.6105623245239,11.6105146408081,11.610466003418,11.6104173660278,11.610369682312,11.6103210449219,11.6102724075317,11.6102247238159,11.6101760864258,11.6101274490356,11.6100797653198,11.6240501403809,11.6427087783813,11.6614274978638,11.6802062988281,11.6990461349487,11.7179460525513,11.7369079589844,11.7559309005737,11.7750158309937,11.7941627502441,11.8133726119995,11.8326444625854,11.8519792556763,11.8713779449463,11.9013347625732,11.9442157745361,11.9874076843262,12.0309133529663,12.0747356414795,12.118878364563,12.1633443832397,12.2081384658813,12.2532644271851,12.2987241744995,12.3445234298706,12.390664100647,12.4371509552002,12.4839887619019,12.5311803817749,12.5787296295166,12.6266422271729,12.6749200820923,12.718035697937,12.7455501556396,12.7731828689575,12.806266784668,12.8761053085327,12.9467010498047,13.0180749893188,13.0902404785156,13.1632099151611,13.2369985580444,14.3468132019043,14.3637561798096,14.3807382583618,14.3977613449097,14.4148244857788,14.4319276809692,14.4490728378296,14.4662570953369,14.4834833145142,14.500750541687,14.5180587768555,14.5354080200195,14.5527992248535,14.5702323913574,14.5877065658569,14.6052236557007,14.62278175354,14.6403827667236,14.6580266952515,14.6757125854492,14.6934413909912,14.7112131118774,14.7290277481079,14.7468852996826,14.7647867202759,14.7827310562134,14.8007192611694,14.818751335144,14.8368282318115,14.8549480438232,14.8731126785278,14.8913221359253,14.9095754623413,14.9278745651245,14.9462175369263,14.9646062850952,14.9830408096313,15.0015201568604,15.0200452804565,15.0386161804199,15.0572328567505,15.0758962631226,15.0946054458618,15.1133613586426,15.1321640014648,15.1510133743286,15.1699094772339,15.188853263855,15.2078437805176,15.2174463272095,15.226432800293,15.2354307174683,15.2444381713867,15.253457069397,15.262487411499,15.2715272903442,15.2805776596069,15.2896394729614,15.2987117767334,15.3077955245972,15.3168888092041,15.3259935379028,15.3351097106934,15.3442363739014,15.3533735275269,15.3625211715698,15.3716802597046,15.3808507919312,15.3900318145752,15.3992233276367,15.40842628479,15.4176406860352,15.4268655776978,15.4361019134521,15.445348739624,15.4546070098877,15.4646558761597,15.6020021438599,15.7418088912964,15.9107933044434,16.342227935791,16.7977123260498,17.2793159484863,17.7893486022949,18.2849750518799,18.2794246673584,18.2738761901855,18.2683334350586,18.2627925872803,18.2572555541992,18.2517204284668,18.2461910247803,18.2406635284424,18.4136638641357,18.5558605194092,18.7002696990967,0,0,0,0,0,0,0,0,0,0,0,0,0,0,0,0,16.9314060211182,16.919225692749,16.9070606231689,16.8949146270752,16.8827857971191,16.8706741333008,15.2607383728027,15.2256860733032,15.1974391937256,15.2045164108276,15.2115993499756,16.798360824585,16.7863655090332,16.7743892669678,16.7624282836914,16.9860286712646,0,0,0,0,0,0,0,0,0,0,0,0,0,0,0,0,0,0,0,0,0,0,0,0,0,0,0,0,0,0
13.266432762146,13.2663774490356,13.2663221359253,13.2662668228149,13.2662115097046,13.2661561965942,13.2661008834839,13.2660455703735,11.6133079528809,11.613260269165,11.6132116317749,11.6131629943848,11.6131143569946,11.6130666732788,11.6130180358887,11.6129693984985,11.6129217147827,11.6128730773926,11.6128244400024,11.6127767562866,11.6127281188965,11.6126794815063,11.6126317977905,11.6125831604004,11.6125345230103,11.6124858856201,11.6124382019043,11.6123895645142,11.612340927124,11.6122932434082,11.6122446060181,11.6121959686279,11.6121482849121,11.612099647522,11.6120510101318,11.612003326416,11.6119546890259,11.6119060516357,11.6118583679199,11.6118097305298,11.6117610931396,11.6117134094238,11.6116647720337,11.6116161346436,11.6115674972534,11.6115198135376,11.6114711761475,11.6114225387573,11.6113748550415,11.6113262176514,11.6112775802612,11.6112298965454,11.6111812591553,11.6111326217651,11.6110849380493,11.6110363006592,11.610987663269,11.6109399795532,11.6108913421631,11.6108427047729,11.6107950210571,11.610746383667,11.6106977462769,11.610650062561,11.6106014251709,11.6105527877808,11.6105051040649,11.6104564666748,11.6104078292847,11.6103601455688,11.6103115081787,11.6102628707886,11.6102151870728,11.6101665496826,11.6101179122925,11.6281108856201,11.646782875061,11.6655149459839,11.6843070983887,11.7031602859497,11.7220735549927,11.7410488128662,11.760085105896,11.7791833877563,11.7983446121216,11.8175668716431,11.8368530273438,11.8562021255493,11.8756141662598,11.8950901031494,11.9358892440796,11.9790210723877,12.0224657058716,12.0662260055542,12.1103067398071,12.154709815979,12.1994400024414,12.2445011138916,12.2898960113525,12.3356294631958,12.38170337677,12.4281234741211,12.474892616272,12.5220155715942,12.5694952011108,12.6173372268677,12.6655435562134,12.7141208648682,12.763072013855,12.8069705963135,12.8768081665039,12.9474115371704,13.0187931060791,13.0909662246704,13.1639442443848,13.2377405166626,14.3068332672119,14.3236808776855,14.3405694961548,14.357497215271,14.3744640350342,14.391471862793,14.4085206985474,14.425609588623,14.44273853302,14.4599084854126,14.4771194458008,14.4943714141846,14.511664390564,14.528998374939,14.5463743209839,14.5637912750244,14.5812511444092,14.5987520217896,14.6162948608398,14.6338806152344,14.6515083312988,14.6691780090332,14.6868915557861,14.704647064209,14.7224454879761,14.7402877807617,14.7581729888916,14.7761011123657,14.7940740585327,14.8120899200439,14.8301496505737,14.8482532501221,14.8664016723633,14.8845949172974,14.90283203125,14.9211139678955,14.9394407272339,14.9578132629395,14.9762296676636,14.9946928024292,15.0132007598877,15.0317544937134,15.0503549575806,15.0690011978149,15.0876932144165,15.1064319610596,15.1249551773071,15.1338329315186,15.1427211761475,15.1516199111938,15.1605291366577,15.1694488525391,15.1783790588379,15.1873197555542,15.196270942688,15.2052335739136,15.2142057418823,15.2231884002686,15.2321825027466,15.2411870956421,15.2502012252808,15.2592277526855,15.2682638168335,15.2773103713989,15.2863683700562,15.2954368591309,15.304515838623,15.313606262207,15.3227071762085,15.3318185806274,15.3409414291382,15.3500747680664,15.3592185974121,15.3683738708496,15.3775405883789,15.3867177963257,15.3959054946899,15.405104637146,15.4246854782104,15.561318397522,15.7003946304321,15.8419790267944,16.1992149353027,16.6466522216797,17.1195106506348,17.6200160980225,18.150671005249,18.2653522491455,18.2598133087158,18.2542762756348,18.2487449645996,18.2432155609131,18.2376899719238,18.2321681976318,18.2260646820068,18.4852771759033,18.6285858154297,0,0,0,0,0,0,0,0,0,0,0,0,16.924036026001,16.911865234375,16.8997116088867,16.8875751495361,16.8754577636719,15.2744493484497,15.2393341064453,15.2069301605225,15.1998729705811,15.2069520950317,15.2140378952026,15.2211303710938,15.2282285690308,15.2353343963623,15.2424468994141,16.743278503418,16.7313632965088,16.7194633483887,16.7075805664062,17.0236225128174,0,0,0,0,0,0,0,0,0,0,0,0,0,0,0,0,0,0,0,0,0,0,0,0,0,0,0,0,0
13.2665319442749,13.2664766311646,13.2664213180542,13.2663669586182,13.2663116455078,13.2662563323975,13.2662010192871,13.2661457061768,11.613395690918,11.6133470535278,11.6132984161377,11.6132507324219,11.6132020950317,11.6131534576416,11.6131048202515,11.6130571365356,11.6130084991455,11.6129598617554,11.6129121780396,11.6128635406494,11.6128149032593,11.6127672195435,11.6127185821533,11.6126699447632,11.6126222610474,11.6125736236572,11.6125249862671,11.612476348877,11.6124286651611,11.612380027771,11.6123313903809,11.612283706665,11.6122350692749,11.6121864318848,11.6121387481689,11.6120901107788,11.6120414733887,11.6119937896729,11.6119451522827,11.6118965148926,11.6118488311768,11.6118001937866,11.6117515563965,11.6117038726807,11.6116552352905,11.6116065979004,11.6115579605103,11.6115102767944,11.6114616394043,11.6114130020142,11.6113653182983,11.6113166809082,11.6112680435181,11.6112203598022,11.6111717224121,11.611123085022,11.6110754013062,11.611026763916,11.6109781265259,11.6109304428101,11.6108818054199,11.6108331680298,11.610785484314,11.6107368469238,11.6106882095337,11.6106405258179,11.6105918884277,11.6105432510376,11.6104955673218,11.6104469299316,11.6103982925415,11.6103506088257,11.6103019714355,11.6102533340454,11.6102056503296,11.6135511398315,11.6321754455566,11.650860786438,11.669605255127,11.6884107589722,11.7072772979736,11.726203918457,11.745192527771,11.7642431259155,11.7833547592163,11.8025283813477,11.8217649459839,11.841064453125,11.860426902771,11.8798532485962,11.8993425369263,11.9275741577148,11.970645904541,12.0140295028687,12.057728767395,12.1017465591431,12.1460876464844,12.1907539367676,12.2357511520386,12.281081199646,12.3267478942871,12.3727560043335,12.4191083908081,12.4658098220825,12.512864112854,12.5602750778198,12.6080455780029,12.6702461242676,12.7385787963867,12.8076658248901,12.8775110244751,12.9481220245361,13.0195112228394,13.0916929244995,13.1646785736084,13.2384834289551,14.2670745849609,14.2838287353516,14.3006229400635,14.3174562454224,14.3343296051025,14.351243019104,14.3681955337524,14.3851890563965,14.4022226333618,14.4192962646484,14.4364099502563,14.4535655975342,14.470760345459,14.4879970550537,14.505274772644,14.5225944519043,14.5399551391602,14.5573568344116,14.574800491333,14.5922861099243,14.6098136901855,14.6273832321167,14.6449956893921,14.6626501083374,14.680347442627,14.6980876922607,14.7158699035645,14.7336959838867,14.7515649795532,14.7694778442383,14.7874336242676,14.8054332733154,14.8234777450562,14.8415651321411,14.8596973419189,14.8778734207153,14.8960943222046,14.9143590927124,14.9326696395874,14.9510250091553,14.9694261550903,14.9878711700439,15.0063629150391,15.0249004364014,15.0423517227173,15.0511331558228,15.0599241256714,15.0687265396118,15.0775384902954,15.0863609313965,15.0951929092407,15.1040363311768,15.1128902435303,15.121753692627,15.1306276321411,15.1395120620728,15.1484069824219,15.1573133468628,15.1662292480469,15.1751556396484,15.1840925216675,15.193039894104,15.201997756958,15.2109670639038,15.2199459075928,15.2289361953735,15.2379360198975,15.2469472885132,15.2559690475464,15.2650012969971,15.2740449905396,15.2830982208252,15.2921628952026,15.3012390136719,15.3103246688843,15.3194217681885,15.3285293579102,15.3376483917236,15.3467779159546,15.355917930603,15.3849201202393,15.5208473205566,15.6591968536377,15.8000364303589,16.0586814880371,16.4982852935791,16.9626331329346,17.45387840271,17.9744243621826,18.2513008117676,18.2457695007324,18.2402439117432,18.2347202301025,18.2291984558105,18.2236824035645,18.218168258667,18.4027099609375,18.5574493408203,18.7235279083252,0,0,0,0,0,0,0,0,0,0,16.8802433013916,16.8681354522705,15.2530059814453,15.2212438583374,15.1952323913574,15.2023077011108,15.2093887329102,15.2164764404297,15.2235708236694,15.2306718826294,15.2377805709839,15.2448949813843,15.2520160675049,15.2591428756714,15.2662773132324,15.2734184265137,16.6885566711426,16.6767196655273,16.6648979187012,16.6812744140625,17.0613822937012,0,0,0,0,0,0,0,0,0,0,0,0,0,0,0,0,0,0,0,0,0,0,0,0,0,0,0,0
13.2666320800781,13.2665767669678,13.2665214538574,13.2664661407471,13.2664108276367,13.2663555145264,13.266300201416,13.2662448883057,11.6134824752808,11.6134338378906,11.6133861541748,11.6133375167847,11.6132888793945,11.6132402420044,11.6131925582886,11.6131439208984,11.6130952835083,11.6130475997925,11.6129989624023,11.6129503250122,11.6129026412964,11.6128540039062,11.6128053665161,11.6127576828003,11.6127090454102,11.61266040802,11.6126127243042,11.6125640869141,11.6125154495239,11.6124668121338,11.612419128418,11.6123704910278,11.6123218536377,11.6122741699219,11.6122255325317,11.6121768951416,11.6121292114258,11.6120805740356,11.6120319366455,11.6119842529297,11.6119356155396,11.6118869781494,11.6118392944336,11.6117906570435,11.6117420196533,11.6116933822632,11.6116456985474,11.6115970611572,11.6115484237671,11.6115007400513,11.6114521026611,11.611403465271,11.6113557815552,11.611307144165,11.6112585067749,11.6112108230591,11.6111621856689,11.6111135482788,11.611065864563,11.6110172271729,11.6109685897827,11.6109209060669,11.6108722686768,11.6108236312866,11.6107759475708,11.6107273101807,11.6106786727905,11.6106309890747,11.6105823516846,11.6105337142944,11.6104860305786,11.6104373931885,11.6103887557983,11.6103410720825,11.6102924346924,11.6102437973022,11.6176052093506,11.6362428665161,11.6549406051636,11.6736993789673,11.6925182342529,11.7113971710205,11.7303380966187,11.7493391036987,11.7684030532837,11.7875280380249,11.806715965271,11.8259658813477,11.8452796936035,11.8646554946899,11.8840951919556,11.9035997390747,11.9231672286987,11.9622821807861,12.0056047439575,12.0492429733276,12.0931987762451,12.1374769210815,12.1820802688599,12.2270126342773,12.2722778320312,12.3178796768188,12.3638210296631,12.4101076126099,12.4702262878418,12.536413192749,12.6033067703247,12.6709175109863,12.7392635345459,12.8083610534668,12.878212928772,12.9488315582275,13.0202293395996,13.0924186706543,13.165412902832,13.2392253875732,14.2275362014771,14.2441987991333,14.2608995437622,14.2776393890381,14.2944192886353,14.3112373352051,14.3280963897705,14.3449945449829,14.3619327545166,14.3789110183716,14.3959293365479,14.4129877090454,14.4300870895386,14.4472274780273,14.4644079208374,14.4816293716431,14.4988918304443,14.5161962509155,14.533540725708,14.5509281158447,14.5683565139771,14.585825920105,14.6033382415771,14.6208925247192,14.6384887695312,14.6561279296875,14.6738090515137,14.6915330886841,14.7093000411987,14.7271099090576,14.7449636459351,14.7628593444824,14.7807998657227,14.7987833023071,14.8168106079102,14.8348827362061,14.8529977798462,14.8711576461792,14.8893623352051,14.9076108932495,14.9259052276611,14.9442434310913,14.9606466293335,14.9693326950073,14.9780282974243,14.9867343902588,14.9954509735107,15.0041780471802,15.0129146575928,15.0216608047485,15.0304183959961,15.0391855239868,15.047963142395,15.0567512512207,15.0655488967896,15.0743570327759,15.0831756591797,15.092004776001,15.1008443832397,15.1096935272217,15.1185541152954,15.1274242401123,15.1363048553467,15.1451959609985,15.1540985107422,15.163010597229,15.1719331741333,15.1808662414551,15.1898097991943,15.1987638473511,15.2077293395996,15.2167043685913,15.2256908416748,15.2346868515015,15.2436943054199,15.2527122497559,15.2617406845093,15.2707805633545,15.2798299789429,15.288890838623,15.2979621887207,15.3070449829102,15.3453598022461,15.4805850982666,15.6182155609131,15.7583150863647,15.9205656051636,16.3525390625,16.8086051940918,17.2908420562744,17.8015670776367,18.2372703552246,18.2317485809326,18.2262306213379,18.2207145690918,18.2152042388916,18.20969581604,18.2040042877197,18.486852645874,18.6301879882812,0,0,0,0,0,0,0,15.2667512893677,15.2355842590332,15.2045450210571,15.1976652145386,15.2047424316406,15.2118263244629,15.2189159393311,15.2260131835938,15.2331161499023,15.2402267456055,15.2473430633545,15.254467010498,15.2615966796875,15.2687330245972,15.2758769989014,15.2830266952515,15.2901830673218,15.2973470687866,15.3045167922974,16.6341915130615,16.6224308013916,16.6106853485107,16.7175312042236,17.1116809844971,0,0,0,0,0,0,0,0,0,0,0,0,0,0,0,0,0,0,0,0,0,0,0,0,0,0,0
13.266731262207,13.2666759490967,13.2666206359863,13.266565322876,13.2665100097656,13.2664546966553,13.2664003372192,13.2663450241089,11.6135692596436,11.6135215759277,11.6134729385376,11.6134243011475,11.6133766174316,11.6133279800415,11.6132793426514,11.6132307052612,11.6131830215454,11.6131343841553,11.6130857467651,11.6130380630493,11.6129894256592,11.612940788269,11.6128931045532,11.6128444671631,11.6127958297729,11.6127481460571,11.612699508667,11.6126508712769,11.6126022338867,11.6125545501709,11.6125059127808,11.6124572753906,11.6124095916748,11.6123609542847,11.6123123168945,11.6122646331787,11.6122159957886,11.6121673583984,11.6121196746826,11.6120710372925,11.6120223999023,11.6119747161865,11.6119260787964,11.6118774414062,11.6118297576904,11.6117811203003,11.6117324829102,11.61168384552,11.6116361618042,11.6115875244141,11.6115388870239,11.6114912033081,11.611442565918,11.6113939285278,11.611346244812,11.6112976074219,11.6112489700317,11.6112012863159,11.6111526489258,11.6111040115356,11.6110563278198,11.6110076904297,11.6109590530396,11.6109113693237,11.6108627319336,11.6108140945435,11.6107664108276,11.6107177734375,11.6106691360474,11.6106214523315,11.6105728149414,11.6105241775513,11.6104764938354,11.6104278564453,11.6103792190552,11.6103315353394,11.6102828979492,11.6216621398926,11.6403131484985,11.6590242385864,11.6777954101562,11.6966276168823,11.7155199050903,11.7344741821289,11.7534894943237,11.7725658416748,11.7917051315308,11.8109064102173,11.8301706314087,11.8494968414307,11.8688869476318,11.8883409500122,11.9078588485718,11.9274406433105,11.9539308547974,11.9971923828125,12.0407695770264,12.0846633911133,12.1288785934448,12.1734189987183,12.2182874679565,12.276424407959,12.3405647277832,12.4053783416748,12.4708766937256,12.537070274353,12.6039705276489,12.6715888977051,12.739951133728,12.8090553283691,12.8789157867432,12.9495420455933,13.0209474563599,13.0931453704834,13.1661472320557,13.2399682998657,14.1882171630859,14.2047863006592,14.2213954925537,14.2380428314209,14.2547292709351,14.2714548110962,14.2882194519043,14.3050241470337,14.3218679428101,14.3387517929077,14.3556747436523,14.3726387023926,14.3896417617798,14.4066858291626,14.4237699508667,14.4408950805664,14.4580602645874,14.4752674102783,14.4925146102905,14.5098028182983,14.5271329879761,14.5445041656494,14.5619173049927,14.5793724060059,14.5968685150146,14.6144065856934,14.6319875717163,14.6496114730835,14.6672763824463,14.6849851608276,14.7027359008789,14.7205305099487,14.7383670806885,14.7562484741211,14.7741718292236,14.7921390533447,14.8101511001587,14.8282060623169,14.8463048934937,14.8644485473633,14.8798236846924,14.8884162902832,14.8970184326172,14.9056310653687,14.9142532348633,14.9228849411011,14.9315271377563,14.9401798248291,14.948842048645,14.9575147628784,14.966197013855,14.974889755249,14.9835920333862,14.9923048019409,15.0010271072388,15.0097608566284,15.0185031890869,15.0272569656372,15.0360202789307,15.0447940826416,15.05357837677,15.0623731613159,15.071177482605,15.0799922943115,15.0888175964355,15.0976533889771,15.1064987182617,15.1153554916382,15.1242218017578,15.1330995559692,15.1419868469238,15.1508846282959,15.1597929000854,15.1687116622925,15.177640914917,15.1865816116333,15.1955318450928,15.2044925689697,15.2134647369385,15.2224464416504,15.2314395904541,15.2404432296753,15.2494564056396,15.2584819793701,15.3060026168823,15.4405317306519,15.5774478912354,15.7168140411377,15.8586950302124,16.2093448638916,16.6573505401611,17.1308250427246,17.6320018768311,18.1633892059326,18.2177505493164,18.2122402191162,18.2067337036133,18.201229095459,18.1957302093506,18.3728141784668,18.5590381622314,18.7476062774658,0,0,15.2499523162842,15.2188539505005,15.1930265426636,15.200098991394,15.2071781158447,15.2142639160156,15.2213563919067,15.2284555435181,15.2355613708496,15.2426738739014,15.2497930526733,15.2569189071655,15.2640504837036,15.2711896896362,15.2783355712891,15.2854881286621,15.2926464080811,15.2998123168945,15.3069849014282,15.3141641616821,15.3213500976562,15.3285427093506,15.3357419967651,16.5801792144775,16.5684947967529,16.5568256378174,16.7539443969727,17.1856327056885,0,0,0,0,0,0,0,0,0,0,0,0,0,0,0,0,0,0,0,0,0,0,0,0,0,0
13.2668313980103,13.2667760848999,13.2667207717896,13.2666654586792,13.2666101455688,13.2665548324585,13.2664995193481,13.2664442062378,11.6136569976807,11.6136083602905,11.6135597229004,11.6135120391846,11.6134634017944,11.6134147644043,11.6133670806885,11.6133184432983,11.6132698059082,11.6132211685181,11.6131734848022,11.6131248474121,11.613076210022,11.6130285263062,11.612979888916,11.6129312515259,11.6128835678101,11.6128349304199,11.6127862930298,11.612738609314,11.6126899719238,11.6126413345337,11.6125926971436,11.6125450134277,11.6124963760376,11.6124477386475,11.6124000549316,11.6123514175415,11.6123027801514,11.6122550964355,11.6122064590454,11.6121578216553,11.6121101379395,11.6120615005493,11.6120128631592,11.6119651794434,11.6119165420532,11.6118679046631,11.6118202209473,11.6117715835571,11.611722946167,11.6116743087769,11.611626625061,11.6115779876709,11.6115293502808,11.6114816665649,11.6114330291748,11.6113843917847,11.6113367080688,11.6112880706787,11.6112394332886,11.6111917495728,11.6111431121826,11.6110944747925,11.6110467910767,11.6109981536865,11.6109495162964,11.6109018325806,11.6108531951904,11.6108045578003,11.6107568740845,11.6107082366943,11.6106595993042,11.6106119155884,11.6105632781982,11.6105146408081,11.6104669570923,11.6104183197021,11.610369682312,11.6103219985962,11.6257219314575,11.6443862915039,11.6631107330322,11.6818952560425,11.7007398605347,11.7196455001831,11.7386131286621,11.7576417922974,11.7767324447632,11.7958850860596,11.8150997161865,11.8343772888184,11.8537178039551,11.873122215271,11.8925895690918,11.9121208190918,11.9317169189453,11.951376914978,11.9887924194336,12.0323076248169,12.0885534286499,12.1507406234741,12.2135705947876,12.2770538330078,12.3412008285522,12.4060211181641,12.4715261459351,12.537727355957,12.6046342849731,12.6722688674927,12.7406387329102,12.8097505569458,12.8796186447144,12.950252532959,13.0216665267944,13.0938711166382,13.1668815612793,13.2407112121582,14.1491146087646,14.1655931472778,14.1821098327637,14.1986656188965,14.215259552002,14.2318925857544,14.2485647201538,14.2652759552002,14.2820262908936,14.2988157272339,14.3156452178955,14.3325138092041,14.349422454834,14.3663711547852,14.3833599090576,14.4003887176514,14.4174585342407,14.4345684051514,14.4517192840576,14.4689102172852,14.4861421585083,14.5034160614014,14.52073097229,14.5380868911743,14.5554838180542,14.5729236602783,14.590404510498,14.6079273223877,14.6254930496216,14.6430997848511,14.6607503890991,14.6784429550171,14.696177482605,14.7139558792114,14.7317771911621,14.7496423721313,14.7675495147705,14.7855014801025,14.7998695373535,14.8083696365356,14.8168792724609,14.8253993988037,14.8339290618896,14.8424682617188,14.8510179519653,14.8595771789551,14.8681468963623,14.8767251968384,14.8853139877319,14.893913269043,14.9025220870972,14.9111404418945,14.9197692871094,14.9284076690674,14.9370565414429,14.9457149505615,14.9543838500977,14.963062286377,14.9717512130737,14.980450630188,14.9891595840454,14.997878074646,15.0066080093384,15.0153474807739,15.024097442627,15.0328569412231,15.0416269302368,15.050407409668,15.0591983795166,15.0679988861084,15.0768098831177,15.0856313705444,15.0944633483887,15.1033058166504,15.1121578216553,15.121021270752,15.1298942565918,15.1387786865234,15.1476726531982,15.1565771102905,15.1654920578003,15.1744174957275,15.1833543777466,15.1923007965088,15.2012577056885,15.21022605896,15.266845703125,15.4006853103638,15.5368928909302,15.6755304336548,15.8166646957397,16.0686359405518,16.5087928771973,16.9737415313721,17.4656391143799,17.9868965148926,18.2037715911865,18.1982707977295,18.1927719116211,18.18727684021,18.1817855834961,18.4884300231934,18.6317882537842,0,0,15.2096147537231,15.216703414917,15.2237977981567,15.2308988571167,15.2380075454712,15.2451219558716,15.2522430419922,15.259370803833,15.266505241394,15.2736473083496,15.2807950973511,15.2879495620728,15.2951107025146,15.3022785186768,15.3094539642334,15.3166351318359,15.323823928833,15.331018447876,15.3382205963135,15.3454284667969,15.3526439666748,15.3598661422729,15.3670949935913,16.526517868042,16.5149078369141,16.5013275146484,16.7905178070068,17.2315349578857,0,0,0,0,0,0,0,0,0,0,0,0,0,0,0,0,0,0,0,0,0,0,0,0,0
13.2669305801392,13.2668752670288,13.2668199539185,13.2667646408081,13.2667093276978,13.2666540145874,13.2665987014771,13.2665433883667,11.6137437820435,11.6136951446533,11.6136474609375,11.6135988235474,11.6135501861572,11.6135025024414,11.6134538650513,11.6134052276611,11.6133575439453,11.6133089065552,11.613260269165,11.6132116317749,11.6131639480591,11.6131153106689,11.6130666732788,11.613018989563,11.6129703521729,11.6129217147827,11.6128740310669,11.6128253936768,11.6127767562866,11.6127290725708,11.6126804351807,11.6126317977905,11.6125831604004,11.6125354766846,11.6124868392944,11.6124382019043,11.6123905181885,11.6123418807983,11.6122932434082,11.6122455596924,11.6121969223022,11.6121482849121,11.6121006011963,11.6120519638062,11.612003326416,11.6119556427002,11.6119070053101,11.6118583679199,11.6118106842041,11.611762046814,11.6117134094238,11.6116647720337,11.6116170883179,11.6115684509277,11.6115198135376,11.6114721298218,11.6114234924316,11.6113748550415,11.6113271713257,11.6112785339355,11.6112298965454,11.6111822128296,11.6111335754395,11.6110849380493,11.6110372543335,11.6109886169434,11.6109399795532,11.6108922958374,11.6108436584473,11.6107950210571,11.6107473373413,11.6106986999512,11.610650062561,11.6106023788452,11.6105537414551,11.6105051040649,11.6104574203491,11.610408782959,11.6111679077148,11.6297845840454,11.6484622955322,11.6671991348267,11.6859970092773,11.70485496521,11.7237749099731,11.7427549362183,11.7617969512939,11.7809009552002,11.800066947937,11.8192958831787,11.8385877609253,11.8579416275024,11.8773593902588,11.8968410491943,11.9163866043091,11.9403877258301,11.9666681289673,12.0276041030884,12.0891637802124,12.1513576507568,12.2141942977905,12.277684211731,12.3418369293213,12.4066648483276,12.4721765518188,12.538384437561,12.6053028106689,12.6729497909546,12.7413272857666,12.8104457855225,12.8803215026855,12.950963973999,13.0223846435547,13.0945978164673,13.1676158905029,13.2414541244507,14.1102266311646,14.1266145706177,14.1430406570435,14.1595048904419,14.176007270813,14.1925487518311,14.2091293334961,14.2257471084595,14.2424049377441,14.2591018676758,14.2758378982544,14.29261302948,14.3094272613525,14.3262815475464,14.3431758880615,14.3601102828979,14.3770837783813,14.3940982818604,14.4111518859863,14.4282474517822,14.4453830718994,14.4625587463379,14.4797763824463,14.497034072876,14.5143337249756,14.5316743850708,14.5490560531616,14.5664806365967,14.5839462280273,14.6014537811279,14.6190032958984,14.6365947723389,14.6542291641235,14.6719064712524,14.6896257400513,14.7073879241943,14.7207698822021,14.7291793823242,14.7375984191895,14.7460279464722,14.7544660568237,14.7629146575928,14.771372795105,14.779839515686,14.7883176803589,14.7968044281006,14.8053007125854,14.8138074874878,14.8223237991333,14.8308506011963,14.8393859863281,14.8479318618774,14.8564872741699,14.8650531768799,14.873628616333,14.8822135925293,14.8908090591431,14.8994140625,14.9080295562744,14.9166536331177,14.9252891540527,14.933934211731,14.9425888061523,14.9512538909912,14.9599294662476,14.9686145782471,14.9773101806641,14.9860153198242,14.9947309494019,15.003457069397,15.0121927261353,15.020938873291,15.0296945571899,15.0384607315063,15.0472373962402,15.0560245513916,15.0648221969604,15.0736293792725,15.082447052002,15.0912752151489,15.1001138687134,15.1089630126953,15.1178216934204,15.126690864563,15.1355714797974,15.1444616317749,15.1533622741699,15.1622743606567,15.2278900146484,15.3610439300537,15.4965476989746,15.6344633102417,15.7748556137085,15.9303503036499,16.3628616333008,16.8195133209229,17.3023853302002,17.8138008117676,18.1898155212402,18.1843223571777,18.1788330078125,18.1733455657959,18.3430156707764,18.5606269836426,0,0,15.2404537200928,15.2475709915161,15.2546939849854,15.2618246078491,15.2689609527588,15.276104927063,15.2832555770874,15.2904119491577,15.2975759506226,15.3047466278076,15.3119230270386,15.3191070556641,15.3262977600098,15.3334951400757,15.3406991958618,15.3479099273682,15.3551273345947,15.3623523712158,15.3695831298828,15.3768215179443,15.3840665817261,15.391318321228,15.3985767364502,15.7151536941528,16.4625434875488,16.4687480926514,16.8272495269775,17.2776832580566,0,0,0,0,0,0,0,0,0,0,0,0,0,0,0,0,0,0,0,0,0,0,0,0
13.2670297622681,13.2669744491577,13.2669191360474,13.2668647766113,13.266809463501,13.2667541503906,13.2666988372803,13.2666435241699,11.6138305664062,11.6137828826904,11.6137342453003,11.6136856079102,11.6136379241943,11.6135892868042,11.6135406494141,11.6134929656982,11.6134443283081,11.613395690918,11.6133480072021,11.613299369812,11.6132507324219,11.6132020950317,11.6131544113159,11.6131057739258,11.6130571365356,11.6130094528198,11.6129608154297,11.6129121780396,11.6128644943237,11.6128158569336,11.6127672195435,11.6127195358276,11.6126708984375,11.6126222610474,11.6125736236572,11.6125259399414,11.6124773025513,11.6124286651611,11.6123809814453,11.6123323440552,11.612283706665,11.6122360229492,11.6121873855591,11.6121387481689,11.6120910644531,11.612042427063,11.6119937896729,11.611946105957,11.6118974685669,11.6118488311768,11.6118001937866,11.6117525100708,11.6117038726807,11.6116552352905,11.6116075515747,11.6115589141846,11.6115102767944,11.6114625930786,11.6114139556885,11.6113653182983,11.6113176345825,11.6112689971924,11.6112203598022,11.6111726760864,11.6111240386963,11.6110754013062,11.6110277175903,11.6109790802002,11.6109304428101,11.6108827590942,11.6108341217041,11.610785484314,11.6107378005981,11.610689163208,11.6106405258179,11.6105928421021,11.6105442047119,11.6104955673218,11.610447883606,11.6152200698853,11.6338510513306,11.6525411605835,11.6712913513184,11.6901025772095,11.7089738845825,11.7279062271118,11.7469005584717,11.7659559249878,11.7850732803345,11.8042526245117,11.8234949111938,11.8448781967163,11.8687381744385,11.8926935195923,11.9167461395264,11.9366006851196,11.9672660827637,12.028208732605,12.0897750854492,12.1519746780396,12.2148180007935,12.2783136367798,12.3424739837646,12.4073076248169,12.4728269577026,12.539041519165,12.6059761047363,12.6736307144165,12.7420148849487,12.8111419677734,12.8810243606567,12.9516744613647,13.0231027603149,13.0953245162964,13.1683511734009,13.2421970367432,14.0715522766113,14.0878505706787,14.1041860580444,14.1205606460571,14.1369724273682,14.1534223556519,14.1699113845825,14.1864376068115,14.2030038833618,14.2196083068848,14.2362508773804,14.2529335021973,14.2696552276611,14.2864151000977,14.3032159805298,14.3200550079346,14.3369340896606,14.3538541793823,14.3708124160767,14.3878116607666,14.4048519134521,14.4219312667847,14.4390525817871,14.4562129974365,14.4734153747559,14.4906587600708,14.507942199707,14.5252676010132,14.5426349639893,14.5600433349609,14.5774936676025,14.5949850082397,14.6125192642212,14.6300954818726,14.6425113677979,14.6508321762085,14.659161567688,14.667501449585,14.6758499145508,14.6842088699341,14.6925764083862,14.7009534835815,14.7093410491943,14.717737197876,14.7261438369751,14.7345600128174,14.7429847717285,14.7514200210571,14.7598648071289,14.7683191299438,14.776782989502,14.7852573394775,14.793740272522,14.8022336959839,14.810736656189,14.8192501068115,14.8277721405029,14.8363046646118,14.8448467254639,14.8533992767334,14.8619613647461,14.870532989502,14.879114151001,14.8877058029175,14.8963079452515,14.9049186706543,14.9135408401489,14.9221715927124,14.9308137893677,14.9394645690918,14.9481258392334,14.9567975997925,14.9654788970947,14.9741706848145,14.9828729629517,14.991584777832,15.0003070831299,15.0090389251709,15.0177812576294,15.0265340805054,15.0352964401245,15.0440692901611,15.0528526306152,15.0616464614868,15.0704498291016,15.0792636871338,15.0880880355835,15.0969228744507,15.1057682037354,15.1146240234375,15.1891317367554,15.3216066360474,15.4564123153687,15.5936107635498,15.7332668304443,15.8754472732544,16.2194881439209,16.668062210083,17.1421546936035,17.6440048217773,18.1758804321289,18.1703948974609,18.1649131774902,18.1594352722168,18.4900074005127,18.6333904266357,0,15.2714166641235,15.2785634994507,15.2857160568237,15.292875289917,15.3000411987305,15.3072137832642,15.3143939971924,15.3215799331665,15.3287725448608,15.3359727859497,15.3431787490845,15.3503923416138,15.357611656189,15.3648386001587,15.3720722198486,15.3793125152588,15.3865594863892,15.3938140869141,15.4010744094849,15.4083423614502,15.4156169891357,15.4228982925415,15.4301872253418,15.7537002563477,16.4304790496826,16.4946231842041,16.864143371582,17.3240795135498,0,0,0,0,0,0,0,0,0,0,0,0,0,0,0,0,0,0,0,0,0,0,0
13.2671298980713,13.2670745849609,13.2670192718506,13.2669639587402,13.2669086456299,13.2668533325195,13.2667980194092,13.2667427062988,11.6139183044434,11.6138696670532,11.6138210296631,11.6137733459473,11.6137247085571,11.613676071167,11.6136283874512,11.613579750061,11.6135311126709,11.6134834289551,11.6134347915649,11.6133861541748,11.613338470459,11.6132898330688,11.6132411956787,11.6131925582886,11.6131448745728,11.6130962371826,11.6130475997925,11.6129999160767,11.6129512786865,11.6129026412964,11.6128549575806,11.6128063201904,11.6127576828003,11.6127099990845,11.6126613616943,11.6126127243042,11.6125640869141,11.6125164031982,11.6124677658081,11.612419128418,11.6123714447021,11.612322807312,11.6122741699219,11.6122264862061,11.6121778488159,11.6121292114258,11.61208152771,11.6120328903198,11.6119842529297,11.6119365692139,11.6118879318237,11.6118392944336,11.6117906570435,11.6117429733276,11.6116943359375,11.6116456985474,11.6115980148315,11.6115493774414,11.6115007400513,11.6114530563354,11.6114044189453,11.6113557815552,11.6113080978394,11.6112594604492,11.6112108230591,11.6111631393433,11.6111145019531,11.611065864563,11.6110181808472,11.610969543457,11.6109209060669,11.6108732223511,11.6108245849609,11.6107759475708,11.610728263855,11.6106796264648,11.6106309890747,11.6105833053589,11.6105346679688,11.6104860305786,11.6192760467529,11.6379194259644,11.6566228866577,11.675386428833,11.6942100524902,11.7130947113037,11.7320404052734,11.7510480880737,11.7743673324585,11.7979431152344,11.8216133117676,11.8453788757324,11.8692398071289,11.8931980133057,11.9161558151245,11.9249649047852,11.9678649902344,12.0288133621216,12.0903854370117,12.1525917053223,12.2154407501221,12.2789440155029,12.3431100845337,12.4079513549805,12.4734764099121,12.5397062301636,12.6066493988037,12.6743106842041,12.7427034378052,12.8118371963501,12.8817272186279,12.9523849487305,13.0238218307495,13.0960512161255,13.1690855026245,13.2429399490356,14.033088684082,14.049298286438,14.0655450820923,14.0818290710449,14.0981512069702,14.1145105361938,14.1309089660645,14.1473455429077,14.1638193130493,14.1803321838379,14.1968832015991,14.2134742736816,14.2301025390625,14.2467708587646,14.2634773254395,14.2802228927612,14.2970085144043,14.3138341903687,14.33069896698,14.3476028442383,14.3645477294922,14.3815317153931,14.3985567092896,14.4156217575073,14.4327268600464,14.4498729705811,14.4670600891113,14.4842882156372,14.5015573501587,14.5188674926758,14.5362186431885,14.5536117553711,14.5650806427002,14.5733127593994,14.5815553665161,14.5898065567017,14.5980672836304,14.6063375473022,14.614616394043,14.6229057312012,14.6312036514282,14.6395111083984,14.6478281021118,14.6561546325684,14.6644906997681,14.6728363037109,14.681191444397,14.6895561218262,14.6979293823242,14.7063131332397,14.7147064208984,14.7231092453003,14.7315216064453,14.7399435043335,14.7483749389648,14.7568159103394,14.7652673721313,14.7737274169922,14.7821979522705,14.790678024292,14.7991676330566,14.8076677322388,14.8161764144897,14.8246955871582,14.8332242965698,14.8417634963989,14.8503122329712,14.8588705062866,14.8674383163452,14.8760166168213,14.8846044540405,14.8932027816772,14.9018106460571,14.9104280471802,14.9190559387207,14.9276933670044,14.9363412857056,14.9449996948242,14.953667640686,14.962345123291,14.9710330963135,14.9797315597534,14.9884395599365,14.9971580505371,15.0058870315552,15.0146255493164,15.0233745574951,15.032133102417,15.0409021377563,15.0496816635132,15.0584716796875,15.0672721862793,15.1505708694458,15.2823705673218,15.4164838790894,15.5529708862305,15.6918973922729,15.833327293396,16.0786037445068,16.5193138122559,16.98486328125,17.4774150848389,18.1619663238525,18.1564903259277,18.1510162353516,18.3133125305176,18.5622177124023,0,15.3025054931641,15.3096828460693,15.3168649673462,15.3240528106689,15.3312482833862,15.3384504318237,15.3456592559814,15.3528747558594,15.3600969314575,15.3673257827759,15.3745622634888,15.3818044662476,15.3890542984009,15.3963108062744,15.4035739898682,15.4108438491821,15.4181213378906,15.425404548645,15.4326953887939,15.4399929046631,15.4472980499268,15.4546089172363,15.4619274139404,15.7924003601074,16.3985404968262,16.5300312042236,16.9011993408203,17.3707256317139,0,0,0,0,0,0,0,0,0,0,0,0,0,0,0,0,0,0,0,0,0,0
13.2672290802002,13.2671737670898,13.2671184539795,13.2670631408691,13.2670078277588,13.2669525146484,13.2668981552124,13.2668428421021,11.6140050888062,11.6139574050903,11.6139087677002,11.6138601303101,11.6138114929199,11.6137638092041,11.613715171814,11.6136665344238,11.613618850708,11.6135702133179,11.6135215759277,11.6134738922119,11.6134252548218,11.6133766174316,11.6133279800415,11.6132802963257,11.6132316589355,11.6131830215454,11.6131353378296,11.6130867004395,11.6130380630493,11.6129903793335,11.6129417419434,11.6128931045532,11.6128454208374,11.6127967834473,11.6127481460571,11.612699508667,11.6126518249512,11.612603187561,11.6125545501709,11.6125068664551,11.6124582290649,11.6124095916748,11.612361907959,11.6123132705688,11.6122646331787,11.6122169494629,11.6121683120728,11.6121196746826,11.6120719909668,11.6120233535767,11.6119747161865,11.6119270324707,11.6118783950806,11.6118297576904,11.6117811203003,11.6117334365845,11.6116847991943,11.6116361618042,11.6115884780884,11.6115398406982,11.6114912033081,11.6114435195923,11.6113948822021,11.611346244812,11.6112985610962,11.6112499237061,11.6112012863159,11.6111536026001,11.61110496521,11.6110563278198,11.611008644104,11.6109600067139,11.6109113693237,11.6108636856079,11.6108150482178,11.6107664108276,11.6107187271118,11.6106700897217,11.6106214523315,11.6105737686157,11.6105251312256,11.6233339309692,11.6419906616211,11.6607065200806,11.6814851760864,11.7046899795532,11.7279872894287,11.7513780593872,11.7748613357544,11.7984390258789,11.8221111297607,11.8458795547485,11.8697423934937,11.893702507019,11.904559135437,11.9133520126343,11.9684638977051,12.0294179916382,12.0909967422485,12.153208732605,12.216064453125,12.2795743942261,12.3437471389771,12.408595085144,12.4741296768188,12.5403728485107,12.6073226928711,12.674991607666,12.7433910369873,12.8125324249268,12.8824310302734,12.9530954360962,13.0245409011841,13.0967779159546,13.1698207855225,13.2436828613281,13.9948348999023,14.0109558105469,14.0271139144897,14.0433101654053,14.0595426559448,14.075813293457,14.0921211242676,14.1084671020508,14.1248512268066,14.1412725448608,14.157732963562,14.1742315292358,14.1907691955566,14.2073450088501,14.2239589691162,14.2406129837036,14.2573051452637,14.2740364074707,14.290807723999,14.3076181411743,14.3244676589966,14.3413572311401,14.3582878112793,14.3752574920654,14.3922672271729,14.4093170166016,14.4264078140259,14.4435386657715,14.4607105255127,14.4779233932495,14.4884643554688,14.4966106414795,14.5047655105591,14.5129308700562,14.5211048126221,14.5292873382568,14.5374794006348,14.5456809997559,14.5538921356201,14.5621118545532,14.5703411102295,14.5785799026489,14.5868282318115,14.595085144043,14.6033515930176,14.6116275787354,14.6199131011963,14.6282081604004,14.6365118026733,14.6448259353638,14.653148651123,14.6614818572998,14.6698236465454,14.6781749725342,14.6865358352661,14.6949071884155,14.7032871246338,14.7116765975952,14.7200756072998,14.7284851074219,14.7369031906128,14.7453317642212,14.7537689208984,14.7622165679932,14.7706737518311,14.7791404724121,14.7876167297363,14.796103477478,14.8045988082886,14.8131046295166,14.8216199874878,14.8301458358765,14.8386812210083,14.8472261428833,14.8557806015015,14.8643455505371,14.8729200363159,14.8815040588379,14.8900985717773,14.89870262146,14.9073171615601,14.9159412384033,14.9245758056641,14.933219909668,14.9418745040894,14.9505386352539,14.9592123031616,14.9678974151611,14.9765920639038,14.9852962493896,14.994010925293,15.0027360916138,15.0114707946777,15.0202159881592,15.1122045516968,15.2433347702026,15.3767604827881,15.5125427246094,15.6507444381714,15.7914304733276,15.9401473999023,16.373197555542,16.8304347991943,17.3139419555664,18.1495494842529,18.1494750976562,18.1493988037109,18.491584777832,18.6349925994873,15.333722114563,15.3409280776978,15.3481407165527,15.3553581237793,15.3625831604004,15.3698139190674,15.3770523071289,15.3842973709106,15.3915500640869,15.3988084793091,15.4060735702515,15.4133462905884,15.4206256866455,15.4279117584229,15.4352054595947,15.4425048828125,15.4498119354248,15.4571256637573,15.4644470214844,15.4717741012573,15.4791088104248,15.4864501953125,15.4937992095947,15.8311729431152,16.3667259216309,16.5655937194824,16.9384174346924,17.4176235198975,0,0,0,0,0,0,0,0,0,0,0,0,0,0,0,0,0,0,0,0,0
13.2673292160034,13.2672739028931,13.2672185897827,13.2671632766724,13.267107963562,13.2670526504517,13.2669973373413,13.266942024231,11.6140928268433,11.6140441894531,11.613995552063,11.6139478683472,11.613899230957,11.6138505935669,11.6138019561768,11.6137542724609,11.6137056350708,11.6136569976807,11.6136093139648,11.6135606765747,11.6135120391846,11.6134643554688,11.6134157180786,11.6133670806885,11.6133184432983,11.6132707595825,11.6132221221924,11.6131734848022,11.6131258010864,11.6130771636963,11.6130285263062,11.6129808425903,11.6129322052002,11.6128835678101,11.6128358840942,11.6127872467041,11.612738609314,11.6126899719238,11.612642288208,11.6125936508179,11.6125450134277,11.6124973297119,11.6124486923218,11.6124000549316,11.6123523712158,11.6123037338257,11.6122550964355,11.6122074127197,11.6121587753296,11.6121101379395,11.6120624542236,11.6120138168335,11.6119651794434,11.6119174957275,11.6118688583374,11.6118202209473,11.6117715835571,11.6117238998413,11.6116752624512,11.611626625061,11.6115789413452,11.6115303039551,11.6114816665649,11.6114339828491,11.611385345459,11.6113367080688,11.611289024353,11.6112403869629,11.6111917495728,11.6111440658569,11.6110954284668,11.6110467910767,11.6109991073608,11.6109504699707,11.6109018325806,11.6108541488647,11.6108055114746,11.6107568740845,11.6107091903687,11.6106605529785,11.6106119155884,11.6128997802734,11.6358327865601,11.6588563919067,11.6819715499878,11.7051782608032,11.7284774780273,11.7518701553345,11.7753553390503,11.7989358901978,11.8226099014282,11.8463792800903,11.8702449798584,11.8842239379883,11.8929862976074,11.9087162017822,11.9690618515015,12.0300226211548,12.0916080474854,12.153826713562,12.2166881561279,12.2802047729492,12.3443841934204,12.4092378616333,12.4747886657715,12.5410385131836,12.6079959869385,12.6756725311279,12.7440795898438,12.8132286071777,12.8831338882446,12.9538068771362,13.0252590179443,13.0975046157837,13.1705551147461,13.2444257736206,13.9567899703979,13.9728231430054,13.9888935089111,14.0050001144409,14.0211448669434,14.0373268127441,14.0535449981689,14.0698022842407,14.0860958099365,14.1024284362793,14.1187982559204,14.1352062225342,14.1516523361206,14.1681365966797,14.1846590042114,14.2012205123901,14.2178211212158,14.2344598770142,14.2511386871338,14.2678556442261,14.2846117019653,14.3014078140259,14.3182430267334,14.3351182937622,14.352032661438,14.3689880371094,14.3859825134277,14.4030179977417,14.4126501083374,14.420711517334,14.4287815093994,14.436861038208,14.4449491500854,14.4530467987061,14.4611530303955,14.4692687988281,14.4773931503296,14.4855270385742,14.4936695098877,14.5018215179443,14.5099830627441,14.5181541442871,14.5263338088989,14.5345220565796,14.5427207946777,14.5509281158447,14.5591449737549,14.5673704147339,14.5756053924561,14.5838508605957,14.5921039581299,14.6003675460815,14.6086406707764,14.61692237854,14.6252136230469,14.6335144042969,14.64182472229,14.6501445770264,14.6584730148315,14.6668119430542,14.67516040802,14.6835174560547,14.6918849945068,14.7002620697021,14.7086477279663,14.7170438766479,14.7254495620728,14.7338638305664,14.7422885894775,14.7507228851318,14.7591667175293,14.7676210403442,14.776083946228,14.7845573425293,14.7930393218994,14.801531791687,14.8100347518921,14.818546295166,14.8270683288574,14.835599899292,14.8441410064697,14.8526926040649,14.8612537384033,14.8698244094849,14.8784055709839,14.8869962692261,14.8955974578857,14.9042072296143,14.9128284454346,14.921459197998,14.9300994873047,14.9387502670288,14.9474105834961,14.9560813903809,14.9647617340088,14.9734525680542,15.0740327835083,15.2044982910156,15.3372421264648,15.4723243713379,15.6098070144653,15.7497549057007,15.8922348022461,16.229642868042,16.6787872314453,17.1534976959229,18.1495361328125,18.1494598388672,18.2837066650391,18.5638065338135,15.365065574646,15.3723011016846,15.3795442581177,15.386791229248,15.3940458297729,15.4013071060181,15.4085750579834,15.4158496856689,15.4231309890747,15.430419921875,15.4377155303955,15.4450178146362,15.4523267745972,15.4596433639526,15.4669666290283,15.4742965698242,15.4816331863403,15.488977432251,15.4963283538818,15.5036869049072,15.5110511779785,15.5184230804443,15.5258026123047,15.8701372146606,16.335033416748,16.6013088226318,16.9758014678955,17.4647750854492,0,0,0,0,0,0,0,0,0,0,0,0,0,0,0,0,0,0,0,0
13.2674283981323,13.267373085022,13.2673177719116,13.2672624588013,13.2672071456909,13.2671518325806,13.2670965194702,13.2670412063599,11.6141796112061,11.6141309738159,11.6140832901001,11.61403465271,11.6139860153198,11.613938331604,11.6138896942139,11.6138410568237,11.6137924194336,11.6137447357178,11.6136960983276,11.6136474609375,11.6135997772217,11.6135511398315,11.6135025024414,11.6134548187256,11.6134061813354,11.6133575439453,11.6133089065552,11.6132612228394,11.6132125854492,11.6131639480591,11.6131162643433,11.6130676269531,11.613018989563,11.6129713058472,11.612922668457,11.6128740310669,11.6128263473511,11.6127777099609,11.6127290725708,11.6126804351807,11.6126327514648,11.6125841140747,11.6125354766846,11.6124877929688,11.6124391555786,11.6123905181885,11.6123428344727,11.6122941970825,11.6122455596924,11.6121978759766,11.6121492385864,11.6121006011963,11.6120529174805,11.6120042800903,11.6119556427002,11.6119070053101,11.6118593215942,11.6118106842041,11.611762046814,11.6117143630981,11.611665725708,11.6116170883179,11.6115694046021,11.6115207672119,11.6114721298218,11.611424446106,11.6113758087158,11.6113271713257,11.6112794876099,11.6112308502197,11.6111822128296,11.6111345291138,11.6110858917236,11.6110372543335,11.6109895706177,11.6109409332275,11.6108922958374,11.6108446121216,11.6107959747314,11.6107473373413,11.6106996536255,11.6133813858032,11.6363153457642,11.6593418121338,11.6824588775635,11.7056674957275,11.7289686203003,11.7523622512817,11.7758502960205,11.7994318008423,11.8231086730957,11.8468799591064,11.8639574050903,11.8726892471313,11.8814344406128,11.9093084335327,11.9696607589722,12.0306272506714,12.0922183990479,12.1544437408447,12.2173118591309,12.280834197998,12.3450212478638,12.4098873138428,12.4754486083984,12.5417051315308,12.6086702346802,12.6763534545898,12.7447681427002,12.8139247894287,12.8838367462158,12.954517364502,13.0259780883789,13.0982313156128,13.171290397644,13.2451686859131,13.9189500808716,13.9348964691162,13.9508800506592,13.9668998718262,13.9829559326172,13.9990501403809,14.0151805877686,14.0313482284546,14.0475540161133,14.063796043396,14.0800762176514,14.0963945388794,14.1127500534058,14.1291446685791,14.1455764770508,14.1620464324951,14.1785554885864,14.1951026916504,14.211688041687,14.2283124923706,14.2449769973755,14.261679649353,14.2784214019775,14.295202255249,14.3120231628418,14.3288831710815,14.3376245498657,14.3456020355225,14.3535890579224,14.3615837097168,14.3695878982544,14.3776016235352,14.3856229782104,14.3936548233032,14.4016942977905,14.409743309021,14.4178009033203,14.4258680343628,14.4339437484741,14.4420289993286,14.4501237869263,14.4582271575928,14.4663391113281,14.4744596481323,14.482590675354,14.4907302856445,14.4988794326782,14.5070371627808,14.5152044296265,14.523380279541,14.531566619873,14.5397615432739,14.5479650497437,14.5561780929565,14.5644016265869,14.5726327896118,14.5808744430542,14.5891246795654,14.5973844528198,14.6056537628174,14.6139326095581,14.622220993042,14.6305179595947,14.6388244628906,14.647141456604,14.6554670333862,14.6638021469116,14.6721467971802,14.6805009841919,14.6888647079468,14.6972379684448,14.705620765686,14.7140130996704,14.7224149703979,14.7308263778687,14.7392473220825,14.7476787567139,14.7561187744141,14.7645692825317,14.7730283737183,14.7814979553223,14.7899780273438,14.7984666824341,14.8069648742676,14.8154735565186,14.8239917755127,14.83251953125,14.8410577774048,14.8496055603027,14.8581628799438,14.8667306900024,14.8753080368042,14.8838949203491,14.8924922943115,14.9010992050171,14.9097166061401,14.9183435440063,14.9269800186157,15.0360527038574,15.1658592224121,15.2979259490967,15.4323139190674,15.5690832138062,15.7082986831665,15.8500261306763,16.0885848999023,16.5298480987549,16.996000289917,17.4892082214355,18.1494445800781,18.4931640625,15.3965377807617,15.4038028717041,15.411075592041,15.4183540344238,15.4256372451782,15.4329290390015,15.4402265548706,15.4475317001343,15.4548425674438,15.4621610641479,15.4694871902466,15.4768199920654,15.4841585159302,15.4915056228638,15.4988584518433,15.5062189102173,15.5135860443115,15.5209608078003,15.5283422470093,15.5357303619385,15.5431261062622,15.5505285263062,15.5579376220703,15.9092931747437,16.3034648895264,16.6371765136719,17.0133495330811,17.5121841430664,0,0,0,0,0,0,0,0,0,0,0,0,0,0,0,0,0,0,0
13.2675275802612,13.2674722671509,13.2674169540405,13.2673625946045,13.2673072814941,13.2672519683838,13.2671966552734,13.2671413421631,11.6142663955688,11.614218711853,11.6141700744629,11.6141214370728,11.6140737533569,11.6140251159668,11.6139764785767,11.6139287948608,11.6138801574707,11.6138315200806,11.6137828826904,11.6137351989746,11.6136865615845,11.6136379241943,11.6135902404785,11.6135416030884,11.6134929656982,11.6134452819824,11.6133966445923,11.6133480072021,11.613299369812,11.6132516860962,11.6132030487061,11.6131544113159,11.6131067276001,11.61305809021,11.6130094528198,11.612961769104,11.6129131317139,11.6128644943237,11.6128168106079,11.6127681732178,11.6127195358276,11.6126708984375,11.6126232147217,11.6125745773315,11.6125259399414,11.6124782562256,11.6124296188354,11.6123809814453,11.6123332977295,11.6122846603394,11.6122360229492,11.6121883392334,11.6121397018433,11.6120910644531,11.6120433807373,11.6119947433472,11.611946105957,11.6118974685669,11.6118497848511,11.6118011474609,11.6117525100708,11.611704826355,11.6116561889648,11.6116075515747,11.6115598678589,11.6115112304688,11.6114625930786,11.6114149093628,11.6113662719727,11.6113176345825,11.6112699508667,11.6112213134766,11.6111726760864,11.6111249923706,11.6110763549805,11.6110277175903,11.6109800338745,11.6109313964844,11.6108827590942,11.6108350753784,11.6107864379883,11.6138620376587,11.6367988586426,11.6598262786865,11.6829452514648,11.7061557769775,11.7294588088989,11.7528553009033,11.7763442993164,11.7999286651611,11.8236064910889,11.8437604904175,11.8524627685547,11.8611783981323,11.8699064254761,11.9099016189575,11.9702596664429,12.0312328338623,12.0928297042847,12.1550607681274,12.2179365158081,12.2814645767212,12.3456583023071,12.4105405807495,12.4761075973511,12.5423717498779,12.6093435287476,12.6770343780518,12.7454557418823,12.8146200180054,12.8845405578613,12.955228805542,13.0266971588135,13.0989580154419,13.172025680542,13.2459125518799,13.8813161849976,13.8971757888794,13.9130725860596,13.9290056228638,13.944974899292,13.9609813690186,13.9770240783691,13.9931039810181,14.0092210769653,14.0253753662109,14.0415668487549,14.0577955245972,14.0740613937378,14.0903663635254,14.106707572937,14.1230878829956,14.1395053863525,14.1559619903564,14.1724557876587,14.1889896392822,14.2055606842041,14.2221708297729,14.2388200759888,14.2554903030396,14.2633771896362,14.2712717056274,14.2791757583618,14.287088394165,14.2950096130371,14.302939414978,14.3108787536621,14.318826675415,14.3267831802368,14.3347482681274,14.3427228927612,14.3507061004639,14.3586978912354,14.3666982650757,14.3747081756592,14.3827276229858,14.3907556533813,14.3987913131714,14.4068374633789,14.4148921966553,14.4229555130005,14.4310293197632,14.4391107559204,14.4472017288208,14.45530128479,14.4634103775024,14.4715280532837,14.4796552658081,14.4877920150757,14.4959373474121,14.5040922164917,14.5122556686401,14.5204296112061,14.5286111831665,14.5368032455444,14.5450038909912,14.5532140731812,14.5614328384399,14.5696611404419,14.577898979187,14.5861463546753,14.5944032669067,14.602668762207,14.6109437942505,14.6192283630371,14.6275224685669,14.6358261108398,14.644139289856,14.6524610519409,14.6607933044434,14.6691341400146,14.6774854660034,14.685845375061,14.6942148208618,14.7025947570801,14.7109832763672,14.7193822860718,14.7277898788452,14.7362079620361,14.7446346282959,14.7530717849731,14.7615184783936,14.7699747085571,14.7784414291382,14.7869167327881,14.7954015731812,14.8038969039917,14.8124017715454,14.8209171295166,14.8294410705566,14.8379755020142,14.8465194702148,14.855073928833,14.8636379241943,14.8722114562988,14.8807954788208,14.9982643127441,15.1274156570435,15.2588119506836,15.3925094604492,15.5285711288452,15.6670598983765,15.8080406188965,15.9515819549561,16.3835468292236,16.8413696289062,17.3255157470703,18.2541961669922,15.4281387329102,15.4354343414307,15.4427366256714,15.4500455856323,15.4573593139648,15.4646806716919,15.4720087051392,15.4793434143066,15.4866847991943,15.4940338134766,15.501389503479,15.508752822876,15.5161218643188,15.5234994888306,15.5308828353882,15.5382738113403,15.5456714630127,15.5530767440796,15.5604887008667,15.567907333374,15.5753335952759,15.5827665328979,15.5905208587646,15.9486427307129,16.3183307647705,16.6732006072998,17.0510654449463,17.5598487854004,0,0,0,0,0,0,0,0,0,0,0,0,0,0,0,0,0,0
13.2676277160645,13.2675724029541,13.2675170898438,13.2674617767334,13.267406463623,13.2673511505127,13.2672958374023,13.267240524292,11.614354133606,11.6143054962158,11.6142568588257,11.6142091751099,11.6141605377197,11.6141119003296,11.6140642166138,11.6140155792236,11.6139669418335,11.6139183044434,11.6138706207275,11.6138219833374,11.6137733459473,11.6137256622314,11.6136770248413,11.6136283874512,11.6135807037354,11.6135320663452,11.6134834289551,11.6134357452393,11.6133871078491,11.613338470459,11.6132898330688,11.613242149353,11.6131935119629,11.6131448745728,11.6130971908569,11.6130485534668,11.6129999160767,11.6129522323608,11.6129035949707,11.6128549575806,11.6128072738647,11.6127586364746,11.6127099990845,11.6126613616943,11.6126136779785,11.6125650405884,11.6125164031982,11.6124687194824,11.6124200820923,11.6123714447021,11.6123237609863,11.6122751235962,11.6122264862061,11.6121788024902,11.6121301651001,11.61208152771,11.6120338439941,11.611985206604,11.6119365692139,11.6118879318237,11.6118402481079,11.6117916107178,11.6117429733276,11.6116952896118,11.6116466522217,11.6115980148315,11.6115503311157,11.6115016937256,11.6114530563354,11.6114053726196,11.6113567352295,11.6113080978394,11.6112604141235,11.6112117767334,11.6111631393433,11.6111154556274,11.6110668182373,11.6110181808472,11.6109704971313,11.6109218597412,11.6108732223511,11.6143426895142,11.6372814178467,11.6603107452393,11.6834316253662,11.7066440582275,11.7299499511719,11.7533473968506,11.7768392562866,11.8004245758057,11.8236312866211,11.8323040008545,11.8409900665283,11.8496885299683,11.8583993911743,11.9104948043823,11.9708585739136,12.0318374633789,12.0934410095215,12.1556787490845,12.218560218811,12.2820949554443,12.3463039398193,12.4111928939819,12.476767539978,12.5430383682251,12.6100177764893,12.6777153015137,12.7461442947388,12.8153162002563,12.8852434158325,12.955940246582,13.027416229248,13.099684715271,13.1727609634399,13.2466554641724,13.8438844680786,13.8596591949463,13.875470161438,13.8913164138794,13.9071998596191,13.9231195449829,13.9390754699707,13.9550685882568,13.9710969924927,13.9871635437012,14.003267288208,14.0194072723389,14.0355854034424,14.0517997741699,14.0680522918701,14.084342956543,14.1006708145142,14.1170358657837,14.1334400177002,14.1498823165894,14.1663627624512,14.1820888519287,14.1898937225342,14.1977081298828,14.205530166626,14.2133617401123,14.2212009429932,14.2290496826172,14.2369070053101,14.2447719573975,14.252646446228,14.2605304718018,14.26842212677,14.2763223648071,14.2842321395874,14.2921504974365,14.3000764846802,14.3080129623413,14.315957069397,14.3239107131958,14.3318729400635,14.33984375,14.3478240966797,14.3558130264282,14.3638105392456,14.3718175888062,14.3798322677612,14.3878574371338,14.3958911895752,14.4039335250854,14.4119844436646,14.4200448989868,14.4281148910522,14.4361934661865,14.4442806243896,14.4523773193359,14.4604835510254,14.4685983657837,14.4767217636108,14.4848546981812,14.4929971694946,14.501148223877,14.5093088150024,14.5174789428711,14.5256576538086,14.5338459014893,14.5420436859131,14.5502500534058,14.5584659576416,14.5666913986206,14.5749254226685,14.5831689834595,14.5914220809937,14.599684715271,14.6079568862915,14.6162376403809,14.6245288848877,14.6328287124634,14.6411380767822,14.6494569778442,14.6577854156494,14.6661233901978,14.6744709014893,14.6828269958496,14.6911935806274,14.6995697021484,14.7079553604126,14.7163496017456,14.7247543334961,14.7331686019897,14.7415924072266,14.7500257492065,14.758469581604,14.7669219970703,14.7753849029541,14.7838573455811,14.7923393249512,14.8008308410645,14.8093318939209,14.8178434371948,14.8263645172119,14.8348951339722,14.9606647491455,15.0891675949097,15.2198963165283,15.3529100418091,15.4882698059082,15.6260366439819,15.7662773132324,15.9090576171875,16.2398109436035,16.689525604248,17.1648578643799,15.4598703384399,15.4671955108643,15.4745273590088,15.4818668365479,15.4892120361328,15.496563911438,15.5039215087891,15.5112867355347,15.5186586380005,15.5260381698608,15.5334243774414,15.5408172607422,15.5482177734375,15.555624961853,15.5630397796631,15.5704612731934,15.5778894424438,15.5853252410889,15.5927677154541,15.6002178192139,15.6076745986938,15.6151390075684,15.6283130645752,15.988187789917,16.3529872894287,16.7093830108643,17.0889492034912,17.6077747344971,0,0,0,0,0,0,0,0,0,0,0,0,0,0,0,0,0
