12.3736238479614,12.3846006393433,12.3955974578857,12.4066143035889,12.4176502227783,12.4287052154541,12.4397811889648,12.4508762359619,12.4619903564453,12.4731254577637,12.4842796325684,12.495454788208,12.506649017334,12.5178632736206,12.5290985107422,12.5403537750244,12.5516290664673,12.5629243850708,12.574239730835,12.5855760574341,12.5969333648682,12.6083106994629,12.6197080612183,12.6311264038086,12.6425657272339,12.6540250778198,12.665506362915,12.6770076751709,12.6885299682617,12.7000732421875,12.7116374969482,12.7232227325439,12.7348299026489,12.7464570999146,12.7581062316895,12.7697772979736,12.7814683914185,12.7931823730469,12.8049163818359,12.8166723251343,12.8284502029419,12.8402500152588,12.8520708084106,12.8639144897461,12.8757791519165,12.8876657485962,12.8995742797852,12.9115047454834,12.9234580993652,12.9354333877563,12.9474306106567,12.9594497680664,12.9714918136597,12.9835557937622,12.9956426620483,13.0077514648438,13.0198831558228,13.0320377349854,13.0442152023315,13.056414604187,13.0686378479004,13.080883026123,13.0931520462036,13.1054439544678,13.1177597045898,13.1300973892212,13.1424598693848,13.1548442840576,13.1672525405884,13.1789560317993,13.1877717971802,13.1965990066528,13.2054386138916,13.2142896652222,13.2231521606445,13.232027053833,13.2409143447876,13.249813079834,13.2587232589722,13.2676458358765,13.2765808105469,13.2855272293091,13.2944860458374,13.3034572601318,13.3124399185181,13.3214349746704,13.3304424285889,13.3394622802734,13.3484935760498,13.3575372695923,13.3665933609009,13.3756618499756,13.3847427368164,13.3938360214233,13.4029417037964,13.4120588302612,13.4211893081665,13.4303321838379,13.4394874572754,13.448655128479,13.4578351974487,13.4670276641846,13.4762334823608,13.4854516983032,13.4946813583374,13.5039253234863,13.5131807327271,13.5224494934082,13.5317306518555,13.5410242080688,13.5503311157227,13.5596504211426,13.5689830780029,13.5783281326294,13.5876865386963,13.5970573425293,13.6064414978027,13.6158390045166,13.6252489089966,13.6346712112427,13.6441078186035,13.6535568237305,13.6630191802979,13.6724939346313,13.6819820404053,13.6914844512939,13.7009992599487,13.7105264663696,13.7303428649902,13.7657670974731,13.8013734817505,13.8371648788452,13.8731422424316,13.9093065261841,13.9456605911255,13.9822053909302,14.0189418792725,14.055871963501,14.0929975509644,14.1303195953369,14.167839050293,14.2055587768555,14.243480682373,14.2816047668457,14.3199329376221,14.3584680557251,14.3972110748291,14.4361639022827,14.4753284454346,14.514705657959,14.5542974472046,14.59410572052,14.6341333389282,14.6743803024292,14.7148494720459,14.7555418014526,14.7964601516724,14.8376064300537,14.8789825439453,14.9205894470215,14.9809637069702,15.0716876983643,15.1635179519653,15.2564735412598,15.3505764007568,15.4458465576172,15.5423078536987,15.6399803161621,15.7388887405396,0,0,0,0,0,0,0,0,0,0,0,0,0,0,0,0,0,0,0,0,0,0,0,0,0,0,0,0,0,0,0,0,0,0,0,0,0,0,0,0,0,0,0,0,0,0,0,0,0,0,0,0,0,0,0,0,0,0,0,0,0,0,0,0,0,0,0,0,0,0,0,0,0,0,0,0,0,0,0,0,0,0,0,0,0,0,0,0,0,0,0,0,0,0,0,0,0,0,0,0,0,0,0,0,0,0,0,0,0,0,0,0,0,0,0,0,0,0,0,0,0,0,0,0,0,0,0,0,0,0,0,0,0,0,0,0,0
12.3317489624023,12.3426523208618,12.3535747528076,12.3645172119141,12.3754787445068,12.3864593505859,12.3974599838257,12.4084796905518,12.4195184707642,12.4305782318115,12.4416570663452,12.4527559280396,12.4638738632202,12.4750127792358,12.4861707687378,12.4973487854004,12.5085468292236,12.5197658538818,12.5310039520264,12.5422630310059,12.5535411834717,12.5648412704468,12.5761604309082,12.5874996185303,12.5988597869873,12.6102409362793,12.6216421127319,12.6330642700195,12.6445064544678,12.655969619751,12.6674547195435,12.6789588928223,12.6904850006104,12.7020320892334,12.7136001586914,12.7251892089844,12.7367992401123,12.7484312057495,12.7600831985474,12.7717571258545,12.7834529876709,12.7951698303223,12.8069076538086,12.8186674118042,12.8304491043091,12.8422527313232,12.8540773391724,12.8659238815308,12.8777923583984,12.8896827697754,12.9015951156616,12.9135293960571,12.9254865646362,12.9374647140503,12.9494657516479,12.9614896774292,12.9735345840454,12.9856033325195,12.9976930618286,13.0098066329956,13.0219421386719,13.0341005325317,13.0462808609009,13.0584850311279,13.0707120895386,13.0829610824585,13.0952339172363,13.1075296401978,13.1198482513428,13.1321897506714,13.1445550918579,13.156943321228,13.1693553924561,13.1817903518677,13.1942491531372,13.2067317962646,13.2191848754883,13.2280540466309,13.2369356155396,13.24582862854,13.2547340393066,13.2636518478394,13.2725811004639,13.2815217971802,13.2904758453369,13.2994413375854,13.3084182739258,13.3174085617065,13.3264102935791,13.3354244232178,13.3444499969482,13.3534889221191,13.3625392913818,13.3716020584106,13.3806772232056,13.3897647857666,13.3988647460938,13.407977104187,13.4171018600464,13.4262390136719,13.4353885650635,13.4445505142212,13.4537258148193,13.4629125595093,13.4721126556396,13.4813241958618,13.4905490875244,13.4997873306274,13.5090370178223,13.5183000564575,13.5275754928589,13.5368633270264,13.5461645126343,13.5554790496826,13.5648050308228,13.5741443634033,13.5834970474243,13.5928621292114,13.602240562439,13.6116313934326,13.6210355758667,13.6304531097412,13.6398830413818,13.6493263244629,13.6587829589844,13.668251991272,13.677734375,13.6872301101685,13.6967391967773,13.728443145752,13.7638559341431,13.7994527816772,13.8352346420288,13.8712015151978,13.907356262207,13.943699836731,13.9802341461182,14.0169610977173,14.0538806915283,14.0909948348999,14.128306388855,14.1658153533936,14.2035245895386,14.2414350509644,14.2795486450195,14.3178663253784,14.3563899993896,14.3951215744019,14.4340629577637,14.4732160568237,14.5125818252563,14.5521621704102,14.5919589996338,14.6319742202759,14.6722087860107,14.7126665115356,14.7533473968506,14.7942533493042,14.8353872299194,14.8767509460449,14.918345451355,14.9601726531982,15.0222635269165,15.1134901046753,15.20583152771,15.2993087768555,15.3939418792725,15.4897537231445,15.5867652893066,15.6849994659424,0,0,0,0,0,0,0,0,0,0,0,0,0,0,0,0,0,0,0,0,0,0,0,0,0,0,0,0,0,0,0,0,0,0,0,0,0,0,0,0,0,0,0,0,0,0,0,0,0,0,0,0,0,0,0,0,0,0,0,0,0,0,0,0,0,0,0,0,0,0,0,0,0,0,0,0,0,0,0,0,0,0,0,0,0,0,0,0,0,0,0,0,0,0,0,0,0,0,0,0,0,0,0,0,0,0,0,0,0,0,0,0,0,0,0,0,0,0,0,0,0,0,0,0,0,0,0,0,0,0,0,0,0,0,0,0
12.2901782989502,12.3010091781616,12.3118591308594,12.3227281570435,12.3336162567139,12.3445234298706,12.3554487228394,12.3663902282715,12.3773508071899,12.388331413269,12.3993310928345,12.4103507995605,12.4213895797729,12.432448387146,12.4435300827026,12.4546327590942,12.4657545089722,12.4768962860107,12.4880571365356,12.4992389678955,12.510440826416,12.5216627120972,12.532904624939,12.5441665649414,12.5554485321045,12.5667514801025,12.5780744552612,12.5894184112549,12.6007823944092,12.6121664047241,12.623571395874,12.6349973678589,12.6464433670044,12.6579113006592,12.6693992614746,12.6809072494507,12.692437171936,12.7039880752563,12.7155599594116,12.7271528244019,12.7387666702271,12.7504024505615,12.762059211731,12.7737369537354,12.785436630249,12.7971572875977,12.8088989257812,12.8206624984741,12.8324480056763,12.8442554473877,12.8560838699341,12.8679342269897,12.8798065185547,12.8917007446289,12.9036169052124,12.9155550003052,12.9275150299072,12.9394979476929,12.9515027999878,12.963529586792,12.9755792617798,12.9876508712769,12.9997453689575,13.0118618011475,13.024001121521,13.0361633300781,13.0483484268188,13.0605564117432,13.0727863311768,13.0850400924683,13.0973167419434,13.1096162796021,13.1219387054443,13.1342840194702,13.146653175354,13.1590461730957,13.1714611053467,13.1839008331299,13.1963634490967,13.2088499069214,13.221360206604,13.2338933944702,13.2464504241943,13.2590322494507,13.2685832977295,13.2775192260742,13.2864675521851,13.2954273223877,13.3043994903564,13.3133840560913,13.322380065918,13.3313884735107,13.3404092788696,13.3494424819946,13.3584871292114,13.3675451278687,13.3766145706177,13.3856964111328,13.3947916030884,13.4038982391357,13.4130172729492,13.4221487045288,13.4312925338745,13.4404487609863,13.4496183395386,13.4587993621826,13.4679937362671,13.4772005081177,13.4864196777344,13.4956512451172,13.5048961639404,13.5141534805298,13.5234231948853,13.5327053070068,13.5420007705688,13.551308631897,13.5606298446655,13.5699634552002,13.5793104171753,13.5886697769165,13.5980424880981,13.6074275970459,13.6168260574341,13.6262369155884,13.6356611251831,13.6450986862183,13.6545495986938,13.6640129089355,13.6734895706177,13.6913204193115,13.7265424728394,13.7619466781616,13.7975330352783,13.8333044052124,13.8692617416382,13.9054069519043,13.9417400360107,13.9782638549805,14.0149803161621,14.0518894195557,14.0889930725098,14.1262941360474,14.1637926101685,14.2014904022217,14.23939037323,14.2774925231934,14.3157997131348,14.3543119430542,14.3930330276489,14.4319629669189,14.4711046218872,14.5104579925537,14.5500268936157,14.5898122787476,14.6298151016235,14.6700391769409,14.7104835510254,14.7511529922485,14.792046546936,14.8331680297852,14.8745193481445,14.9161014556885,14.9579162597656,14.9999666213989,15.0637912750244,15.1555242538452,15.2483825683594,15.3423852920532,15.4375534057617,15.5339107513428,15.631477355957,15.7302780151367,0,0,0,0,0,0,0,0,0,0,0,0,0,0,0,0,0,0,0,0,0,0,0,0,0,0,0,0,0,0,0,0,0,0,0,0,0,0,0,0,0,0,0,0,0,0,0,0,0,0,0,0,0,0,0,0,0,0,0,0,0,0,0,0,0,0,0,0,0,0,0,0,0,0,0,0,0,0,0,0,0,0,0,0,0,0,0,0,0,0,0,0,0,0,0,0,0,0,0,0,0,0,0,0,0,0,0,0,0,0,0,0,0,0,0,0,0,0,0,0,0,0,0,0,0,0,0,0,0,0,0,0,0,0
12.2488641738892,12.2596225738525,12.2703990936279,12.281195640564,12.292010307312,12.3028440475464,12.3136968612671,12.3245697021484,12.3354606628418,12.3463716506958,12.3573017120361,12.3682518005371,12.3792200088501,12.3902082443237,12.401216506958,12.4122438430786,12.4232912063599,12.4343576431274,12.4454393386841,12.4565410614014,12.467661857605,12.4788026809692,12.4899644851685,12.501145362854,12.5123462677002,12.523567199707,12.5348091125488,12.5460710525513,12.5573568344116,12.5686626434326,12.5799894332886,12.5913362503052,12.6027040481567,12.6140918731689,12.6254997253418,12.6369295120239,12.6483793258667,12.6598501205444,12.6713418960571,12.6828536987305,12.6943874359131,12.7059412002563,12.7175168991089,12.7291135787964,12.7407312393188,12.7523698806763,12.764030456543,12.7757120132446,12.7874145507812,12.7991390228271,12.810884475708,12.8226518630981,12.8344411849976,12.8462524414062,12.8580846786499,12.8699388504028,12.881814956665,12.8937139511108,12.9056339263916,12.9175758361816,12.9295406341553,12.9415273666382,12.9535360336304,12.9655666351318,12.9776201248169,12.9896965026855,13.0017948150635,13.013916015625,13.0260591506958,13.0382251739502,13.0504140853882,13.0626258850098,13.0748615264893,13.087119102478,13.0993995666504,13.1117029190063,13.1240301132202,13.1363792419434,13.1487522125244,13.1611490249634,13.1735687255859,13.1860113143921,13.1984786987305,13.2109689712524,13.2234830856323,13.2360200881958,13.2485818862915,13.2611675262451,13.2737770080566,13.2864103317261,13.2990674972534,13.3093614578247,13.3183526992798,13.3273553848267,13.3363704681396,13.3453979492188,13.354437828064,13.3634901046753,13.3725538253784,13.381630897522,13.3907194137573,13.3998212814331,13.4089345932007,13.4180603027344,13.4271993637085,13.4363498687744,13.4455137252808,13.4546890258789,13.4638776779175,13.4730787277222,13.482292175293,13.4915189743042,13.5007572174072,13.5100088119507,13.5192728042603,13.5285501480103,13.5378398895264,13.5471420288086,13.5564575195312,13.56578540802,13.5751256942749,13.5844793319702,13.593846321106,13.6032257080078,13.6126184463501,13.6220235824585,13.6314420700073,13.6408739089966,13.650318145752,13.6597757339478,13.6894311904907,13.7246427536011,13.7600374221802,13.7956142425537,13.8313751220703,13.8673229217529,13.9034576416016,13.9397802352905,13.9762945175171,14.0129995346069,14.049898147583,14.0869922637939,14.1242818832397,14.1617698669434,14.1994571685791,14.2373456954956,14.2754373550415,14.3137331008911,14.3522348403931,14.390944480896,14.4298629760742,14.4689931869507,14.5083351135254,14.5478925704956,14.5876665115356,14.6276578903198,14.6678695678711,14.7083024978638,14.7489595413208,14.7898406982422,14.8309507369995,14.8722887039185,14.9138584136963,14.9556608200073,14.9976987838745,15.0399732589722,15.1055498123169,15.1977939605713,15.2911720275879,15.3857040405273,15.4814128875732,15.5783195495605,15.6764469146729,0,0,0,0,0,0,0,0,0,0,0,0,0,0,0,0,0,0,0,0,0,0,0,0,0,0,0,0,0,0,0,0,0,0,0,0,0,0,0,0,0,0,0,0,0,0,0,0,0,0,0,0,0,0,0,0,0,0,0,0,0,0,0,0,0,0,0,0,0,0,0,0,0,0,0,0,0,0,0,0,0,0,0,0,0,0,0,0,0,0,0,0,0,0,0,0,0,0,0,0,0,0,0,0,0,0,0,0,0,0,0,0,0,0,0,0,0,0,0,0,0,0,0,0,0,0,0,0,0,0,0,0,0
12.2078275680542,12.2185134887695,12.2292184829712,12.2399415969849,12.2506837844849,12.2614450454712,12.2722253799438,12.2830247879028,12.2938423156738,12.3046798706055,12.3155364990234,12.3264122009277,12.3373069763184,12.3482208251953,12.3591537475586,12.3701066970825,12.3810787200928,12.3920707702637,12.4030818939209,12.4141130447388,12.425163269043,12.4362335205078,12.447322845459,12.4584321975708,12.4695625305176,12.4807119369507,12.4918804168701,12.5030698776245,12.5142793655396,12.525505065918,12.5367498397827,12.5480155944824,12.5593004226685,12.5706062316895,12.5819320678711,12.5932788848877,12.6046457290649,12.6160326004028,12.6274404525757,12.6388692855835,12.6503190994263,12.661789894104,12.6732845306396,12.6848001480103,12.6963376998901,12.7078952789307,12.7194747924805,12.7310743331909,12.7426958084106,12.7543382644653,12.766001701355,12.7776870727539,12.7893934249878,12.801121711731,12.8128709793091,12.8246421813965,12.8364353179932,12.8482494354248,12.8600854873657,12.8719434738159,12.8838233947754,12.8957252502441,12.9076490402222,12.9195957183838,12.9315633773804,12.9435539245605,12.95556640625,12.967601776123,12.9796590805054,12.991738319397,13.0038404464722,13.015965461731,13.028112411499,13.040283203125,13.0524759292603,13.0646915435791,13.0769300460815,13.0891914367676,13.1014757156372,13.1137838363647,13.1261148452759,13.1384687423706,13.1508455276489,13.1632461547852,13.1756706237793,13.188117980957,13.2005891799927,13.2130832672119,13.2256021499634,13.2381439208984,13.2507095336914,13.2632989883423,13.2759132385254,13.2885513305664,13.301212310791,13.3138990402222,13.3266086578369,13.3393430709839,13.3503913879395,13.3594379425049,13.3684968948364,13.3775672912598,13.3866510391235,13.3957462310791,13.4048547744751,13.4139747619629,13.4231081008911,13.4322528839111,13.4414110183716,13.4505815505981,13.4597644805908,13.4689598083496,13.4781675338745,13.4873886108398,13.496621131897,13.5058670043945,13.5151252746582,13.5243968963623,13.5336809158325,13.5429773330688,13.5522871017456,13.5616092681885,13.5709438323975,13.5802917480469,13.5896530151367,13.5990266799927,13.6084136962891,13.6178131103516,13.6272258758545,13.6366519927979,13.6525192260742,13.6875419616699,13.7227439880371,13.7581281661987,13.7936954498291,13.8294467926025,13.8653841018677,13.9015083312988,13.9378213882446,13.9743251800537,14.0110197067261,14.047908782959,14.0849914550781,14.1222705841064,14.1597480773926,14.1974248886108,14.2353029251099,14.273383140564,14.3116674423218,14.3501586914062,14.3888568878174,14.4277639389038,14.4668827056885,14.5062131881714,14.5457592010498,14.5855207443237,14.6255006790161,14.6656999588013,14.7061214447021,14.7467660903931,14.7876358032227,14.8287324905396,14.8700590133667,14.9116163253784,14.9534063339233,14.9954309463501,15.0376930236816,15.0801935195923,15.1475400924683,15.2402992248535,15.3342018127441,15.4292688369751,15.5255222320557,15.6229839324951,15.7216768264771,0,0,0,0,0,0,0,0,0,0,0,0,0,0,0,0,0,0,0,0,0,0,0,0,0,0,0,0,0,0,0,0,0,0,0,0,0,0,0,0,0,0,0,0,0,0,0,0,0,0,0,0,0,0,0,0,0,0,0,0,0,0,0,0,0,0,0,0,0,0,0,0,0,0,0,0,0,0,0,0,0,0,0,0,0,0,0,0,0,0,0,0,0,0,0,0,0,0,0,0,0,0,0,0,0,0,0,0,0,0,0,0,0,0,0,0,0,0,0,0,0,0,0,0,0,0,0,0,0,0,0
12.167064666748,12.1776790618896,12.1883125305176,12.1989641189575,12.2096347808838,12.2203245162964,12.231032371521,12.2417583465576,12.2525043487549,12.2632684707642,12.2740516662598,12.284854888916,12.2956762313843,12.3065166473389,12.3173761367798,12.328254699707,12.3391523361206,12.3500699996948,12.3610067367554,12.3719625473022,12.3829383850098,12.3939332962036,12.4049472808838,12.4159812927246,12.4270353317261,12.4381084442139,12.4492025375366,12.4603147506714,12.4714479446411,12.4826011657715,12.4937734603882,12.5049657821655,12.5161790847778,12.5274124145508,12.5386648178101,12.5499382019043,12.5612325668335,12.572546005249,12.5838804244995,12.595235824585,12.6066083908081,12.6179990768433,12.6294107437134,12.6408433914185,12.6522960662842,12.6637697219849,12.6752643585205,12.6867799758911,12.6983156204224,12.7098731994629,12.7214517593384,12.7330513000488,12.7446718215942,12.7563142776489,12.7679777145386,12.7796630859375,12.7913732528687,12.8031044006348,12.8148574829102,12.8266324996948,12.8384294509888,12.8502473831177,12.8620872497559,12.8739490509033,12.8858327865601,12.8977384567261,12.9096660614014,12.9216156005859,12.9335870742798,12.9455814361572,12.9575977325439,12.9696369171143,12.9816970825195,12.9937810897827,13.0058870315552,13.0180158615112,13.0301666259766,13.0423412322998,13.0545377731323,13.0667572021484,13.0789995193481,13.0912647247314,13.1035537719727,13.1158647537231,13.1281995773315,13.1405572891235,13.1529388427734,13.1653432846069,13.1777715682983,13.1902227401733,13.2026977539062,13.2151966094971,13.2277183532715,13.2402648925781,13.2528343200684,13.2654285430908,13.2780466079712,13.2906885147095,13.3033542633057,13.3160438537598,13.3287582397461,13.3414964675903,13.3542594909668,13.3670473098755,13.3798589706421,13.3916749954224,13.4007768630981,13.4098920822144,13.4190196990967,13.4281597137451,13.4373111724854,13.446475982666,13.4556531906128,13.4648427963257,13.474045753479,13.4832601547241,13.4924879074097,13.5017280578613,13.5109806060791,13.5202465057373,13.5295248031616,13.5388154983521,13.5481195449829,13.5574359893799,13.566764831543,13.5761070251465,13.5854625701904,13.5948305130005,13.6042108535767,13.6136054992676,13.6230115890503,13.6506404876709,13.6856527328491,13.7208452224731,13.7562198638916,13.7917766571045,13.8275184631348,13.8634462356567,13.8995599746704,13.935863494873,13.9723558425903,14.0090408325195,14.0459184646606,14.0829916000366,14.1202602386475,14.1577272415161,14.1953926086426,14.2332592010498,14.2713289260864,14.3096027374268,14.3480825424194,14.3867692947388,14.4256658554077,14.4647722244263,14.5040922164917,14.543625831604,14.5833759307861,14.6233444213867,14.6635322570801,14.7039413452148,14.7445735931396,14.7854309082031,14.8265161514282,14.8678302764893,14.9093742370605,14.9511518478394,14.9931640625,15.0354127883911,15.0779008865356,15.1206293106079,15.1897649765015,15.2830438613892,15.3774757385254,15.4730815887451,15.5698833465576,15.6679039001465,0,0,0,0,0,0,0,0,0,0,0,0,0,0,0,0,0,0,0,0,0,0,0,0,0,0,0,0,0,0,0,0,0,0,0,0,0,0,0,0,0,0,0,0,0,0,0,0,0,0,0,0,0,0,0,0,0,0,0,0,0,0,0,0,0,0,0,0,0,0,0,0,0,0,0,0,0,0,0,0,0,0,0,0,0,0,0,0,0,0,0,0,0,0,0,0,0,0,0,0,0,0,0,0,0,0,0,0,0,0,0,0,0,0,0,0,0,0,0,0,0,0,0,0,0,0,0,0,0,0
12.1265726089478,12.1371164321899,12.1476793289185,12.158260345459,12.1688594818115,12.1794776916504,12.1901140213013,12.2007694244385,12.2114429473877,12.2221355438232,12.2328462600708,12.2435760498047,12.2543249130249,12.2650928497314,12.27587890625,12.2866849899292,12.2975091934204,12.3083534240723,12.3192157745361,12.3300981521606,12.3409996032715,12.3519201278687,12.3628597259521,12.3738193511963,12.3847980499268,12.3957958221436,12.406813621521,12.4178514480591,12.4289083480835,12.4399852752686,12.4510822296143,12.4621982574463,12.473334312439,12.4844903945923,12.4956665039062,12.5068626403809,12.5180788040161,12.529314994812,12.5405721664429,12.5518484115601,12.5631456375122,12.574462890625,12.5858011245728,12.5971593856812,12.6085386276245,12.6199378967285,12.6313581466675,12.6427984237671,12.6542596817017,12.6657419204712,12.6772451400757,12.6887683868408,12.7003078460693,12.7118692398071,12.7234516143799,12.7350549697876,12.7466793060303,12.7583246231079,12.7699918746948,12.7816801071167,12.7933893203735,12.8051204681396,12.816873550415,12.8286476135254,12.840443611145,12.8522615432739,12.8641004562378,12.8759622573853,12.8878450393677,12.899751663208,12.9116830825806,12.9236364364624,12.9356117248535,12.9476099014282,12.9596300125122,12.9716720581055,12.9837369918823,12.9958248138428,13.0079345703125,13.0200672149658,13.0322217941284,13.0443992614746,13.0566005706787,13.0688238143921,13.0810699462891,13.0933389663696,13.1056318283081,13.1179466247559,13.1302852630615,13.1426477432251,13.1550321578979,13.167441368103,13.1798734664917,13.192328453064,13.2048072814941,13.2173099517822,13.2298364639282,13.2423868179321,13.2549600601196,13.2675580978394,13.280179977417,13.2928256988525,13.3054962158203,13.3181896209717,13.3309078216553,13.3436508178711,13.3564176559448,13.3692092895508,13.382025718689,13.3948659896851,13.4077310562134,13.4206218719482,13.4332141876221,13.4423732757568,13.4515447616577,13.4607286453247,13.4699258804321,13.4791345596313,13.488356590271,13.4975910186768,13.5068387985229,13.5160980224609,13.5253705978394,13.5346565246582,13.5439538955688,13.5532646179199,13.5625886917114,13.571925163269,13.5812740325928,13.5906362533569,13.6000118255615,13.6139373779297,13.6487617492676,13.6837644577026,13.7189474105835,13.7543125152588,13.7898597717285,13.8255910873413,13.8615083694458,13.8976125717163,13.9339056015015,13.9703884124756,14.0070629119873,14.0439300537109,14.0809917449951,14.1182498931885,14.1557064056396,14.1933612823486,14.2312173843384,14.2692756652832,14.3075380325317,14.3460063934326,14.3846826553345,14.4235677719116,14.4626626968384,14.501971244812,14.5414934158325,14.5812320709229,14.6211881637573,14.6613645553589,14.7017612457275,14.7423820495605,14.7832279205322,14.8242998123169,14.8656015396118,14.907133102417,14.9488983154297,14.9908981323242,15.0331344604492,15.0756092071533,15.1183242797852,15.1612825393677,15.2322254180908,15.3260278701782,15.4209938049316,15.5171432495117,15.6144990921021,15.7130842208862,0,0,0,0,0,0,0,0,0,0,0,0,0,0,0,0,0,0,0,0,0,0,0,0,0,0,0,0,0,0,0,0,0,0,0,0,0,0,0,0,0,0,0,0,0,0,0,0,0,0,0,0,0,0,0,0,0,0,0,0,0,0,0,0,0,0,0,0,0,0,0,0,0,0,0,0,0,0,0,0,0,0,0,0,0,0,0,0,0,0,0,0,0,0,0,0,0,0,0,0,0,0,0,0,0,0,0,0,0,0,0,0,0,0,0,0,0,0,0,0,0,0,0,0,0,0,0,0
12.0863494873047,12.0968236923218,12.1073169708252,12.1178274154663,12.1283559799194,12.1389036178589,12.1494693756104,12.1600532531738,12.1706562042236,12.1812772750854,12.1919164657593,12.2025747299194,12.2132511138916,12.2239475250244,12.2346611022949,12.2453947067261,12.2561464309692,12.2669172286987,12.2777070999146,12.2885160446167,12.2993440628052,12.3101902008057,12.3210563659668,12.3319416046143,12.3428468704224,12.3537702560425,12.3647136688232,12.3756761550903,12.3866586685181,12.3976593017578,12.4086809158325,12.4197216033936,12.4307823181152,12.4418621063232,12.4529619216919,12.4640817642212,12.4752216339111,12.4863805770874,12.4975605010986,12.5087594985962,12.5199794769287,12.5312194824219,12.5424795150757,12.5537595748901,12.5650606155396,12.5763807296753,12.5877227783203,12.5990839004517,12.6104669570923,12.6218690872192,12.6332931518555,12.6447372436523,12.6562023162842,12.667688369751,12.6791944503784,12.6907224655151,12.7022705078125,12.7138404846191,12.7254314422607,12.7370433807373,12.7486763000488,12.7603302001953,12.7720060348511,12.7836980819702,12.7954120635986,12.8071460723877,12.8189029693604,12.830680847168,12.8424806594849,12.854302406311,12.8661451339722,12.8780097961426,12.8898973464966,12.9018058776855,12.9137372970581,12.9256896972656,12.9376649856567,12.9496631622314,12.9616823196411,12.9737243652344,12.9857883453369,12.997875213623,13.0099849700928,13.0221185684204,13.0342769622803,13.046459197998,13.0586633682251,13.0708904266357,13.0831413269043,13.0954141616821,13.1077098846436,13.1200294494629,13.1323719024658,13.1447381973267,13.1571273803711,13.1695394515991,13.1819753646851,13.1944351196289,13.2069177627563,13.2194242477417,13.231954574585,13.2445087432861,13.2570867538452,13.2696886062622,13.2823143005371,13.2949647903442,13.307638168335,13.3203363418579,13.3330593109131,13.3458061218262,13.3585767745972,13.3713722229004,13.3841924667358,13.3970375061035,13.4099073410034,13.4228010177612,13.4357204437256,13.4486646652222,13.4616327285767,13.474627494812,13.4842281341553,13.4934568405151,13.5026988983154,13.5119524002075,13.52121925354,13.530499458313,13.5397911071777,13.5490970611572,13.5584144592285,13.5677452087402,13.5770883560181,13.5864448547363,13.6120681762695,13.6468830108643,13.6818771362305,13.7170505523682,13.752405166626,13.7879419326782,13.8236637115479,13.8595714569092,13.8956651687622,13.9319477081299,13.9684200286865,14.0050849914551,14.0419416427612,14.0789928436279,14.1162405014038,14.1536855697632,14.1913299560547,14.229175567627,14.2672233581543,14.305474281311,14.3439321517944,14.3825969696045,14.4214696884155,14.4605541229248,14.4998512268066,14.5393619537354,14.5790891647339,14.6190328598022,14.6591968536377,14.6995820999146,14.7401905059814,14.781023979187,14.8220844268799,14.8633737564087,14.9048929214478,14.9466457366943,14.9886322021484,15.0308561325073,15.073317527771,15.1160202026367,15.1589660644531,15.2021551132202,15.2749242782593,15.369255065918,15.4647588729858,15.5614566802979,15.6593704223633,0,0,0,0,0,0,0,0,0,0,0,0,0,0,0,0,0,0,0,0,0,0,0,0,0,0,0,0,0,0,0,0,0,0,0,0,0,0,0,0,0,0,0,0,0,0,0,0,0,0,0,0,0,0,0,0,0,0,0,0,0,0,0,0,0,0,0,0,0,0,0,0,0,0,0,0,0,0,0,0,0,0,0,0,0,0,0,0,0,0,0,0,0,0,0,0,0,0,0,0,0,0,0,0,0,0,0,0,0,0,0,0,0,0,0,0,0,0,0,0,0,0,0,0,0,0,0
12.0463924407959,12.0567979812622,12.0672206878662,12.0776624679565,12.0881214141846,12.0985984802246,12.109094619751,12.119607925415,12.1301403045654,12.1406908035278,12.1512594223022,12.161847114563,12.1724519729614,12.1830768585205,12.1937189102173,12.2043809890747,12.2150611877441,12.2257595062256,12.2364768981934,12.2472133636475,12.2579679489136,12.2687425613403,12.2795352935791,12.2903470993042,12.3011789321899,12.3120288848877,12.3228979110718,12.3337869644165,12.3446941375732,12.3556213378906,12.3665676116943,12.3775339126587,12.3885192871094,12.3995237350464,12.410548210144,12.4215927124023,12.432656288147,12.4437398910522,12.4548425674438,12.4659662246704,12.4771089553833,12.4882717132568,12.499454498291,12.5106573104858,12.5218811035156,12.5331239700317,12.5443868637085,12.5556707382202,12.5669746398926,12.5782995223999,12.5896444320679,12.6010093688965,12.6123952865601,12.6238012313843,12.6352291107178,12.6466760635376,12.6581449508667,12.6696338653564,12.6811447143555,12.6926755905151,12.7042274475098,12.7158012390137,12.7273950576782,12.7390108108521,12.7506475448608,12.7623052597046,12.7739849090576,12.7856855392456,12.7974071502686,12.8091506958008,12.8209161758423,12.8327035903931,12.8445119857788,12.8563423156738,12.8681907653809,12.8800592422485,12.8919496536255,12.903862953186,12.9157972335815,12.9277544021606,12.939733505249,12.9517345428467,12.9637584686279,12.9758043289185,12.9878721237183,12.9999628067017,13.0120763778687,13.0242118835449,13.0363702774048,13.0485515594482,13.0607557296753,13.0729827880859,13.0852327346802,13.097505569458,13.1098012924194,13.1221199035645,13.1344623565674,13.1468286514282,13.1592226028442,13.1716384887695,13.1840782165527,13.1965417861938,13.2090291976929,13.2215394973755,13.234073638916,13.2466316223145,13.2592134475708,13.2718200683594,13.2844495773315,13.2971038818359,13.3097820281982,13.3224840164185,13.3352108001709,13.3479614257812,13.3607368469238,13.3735361099243,13.3863611221313,13.3992099761963,13.4120836257935,13.4249820709229,13.4379053115845,13.4508533477783,13.4638261795044,13.476824760437,13.4898481369019,13.5078096389771,13.5170707702637,13.5263452529907,13.5356311798096,13.5449304580688,13.5542430877686,13.5635681152344,13.575572013855,13.610200881958,13.6450061798096,13.6799898147583,13.7151536941528,13.7504987716675,13.7860260009766,13.8217372894287,13.8576345443726,13.8937187194824,13.9299907684326,13.9664535522461,14.0031070709229,14.0399541854858,14.0769948959351,14.1142320632935,14.1516666412354,14.1892995834351,14.2271347045898,14.2651710510254,14.3034114837646,14.3418579101562,14.3805112838745,14.4193735122681,14.4584465026855,14.4977312088013,14.5372304916382,14.5769462585449,14.6168785095215,14.6570310592651,14.6974039077759,14.738000869751,14.7788219451904,14.8198699951172,14.8611459732056,14.9026536941528,14.944393157959,14.986367225647,15.0285778045654,15.071026802063,15.1137170791626,15.1566486358643,15.1998252868652,15.2432489395142,15.3178625106812,15.4127264022827,15.5087728500366,15.6060237884521,15.7045011520386,0,0,0,0,0,0,0,0,0,0,0,0,0,0,0,0,0,0,0,0,0,0,0,0,0,0,0,0,0,0,0,0,0,0,0,0,0,0,0,0,0,0,0,0,0,0,0,0,0,0,0,0,0,0,0,0,0,0,0,0,0,0,0,0,0,0,0,0,0,0,0,0,0,0,0,0,0,0,0,0,0,0,0,0,0,0,0,0,0,0,0,0,0,0,0,0,0,0,0,0,0,0,0,0,0,0,0,0,0,0,0,0,0,0,0,0,0,0,0,0,0,0,0,0,0
12.0066986083984,12.017035484314,12.0273904800415,12.0377626419067,12.048152923584,12.0585613250732,12.0689868927002,12.0794315338135,12.0898933410645,12.1003742218018,12.1108732223511,12.1213893890381,12.1319246292114,12.1424789428711,12.1530504226685,12.1636409759521,12.1742496490479,12.1848764419556,12.1955223083496,12.20618724823,12.2168703079224,12.2275724411011,12.2382926940918,12.2490320205688,12.2597904205322,12.2705678939819,12.281364440918,12.292179107666,12.3030138015747,12.3138675689697,12.3247394561768,12.3356313705444,12.3465423583984,12.3574733734131,12.3684225082397,12.3793916702271,12.390380859375,12.4013891220093,12.4124164581299,12.4234638214111,12.434531211853,12.4456176757812,12.4567241668701,12.4678506851196,12.4789972305298,12.4901638031006,12.5013494491577,12.5125560760498,12.5237827301025,12.5350294113159,12.5462961196899,12.5575828552246,12.5688905715942,12.5802183151245,12.5915660858154,12.6029348373413,12.6143245697021,12.6257343292236,12.6371650695801,12.6486158370972,12.6600885391235,12.6715812683105,12.6830949783325,12.6946296691895,12.7061853408813,12.7177619934082,12.72935962677,12.7409791946411,12.7526187896729,12.7642812728882,12.7759637832642,12.7876682281494,12.7993936538696,12.8111410140991,12.8229103088379,12.8347005844116,12.8465127944946,12.8583469390869,12.8702030181885,12.882080078125,12.8939800262451,12.9059019088745,12.9178447723389,12.9298114776611,12.9417991638184,12.9538068771362,12.9658346176147,12.9778842926025,12.9899559020996,13.0020503997803,13.0141677856445,13.0263080596924,13.0384702682495,13.0506553649902,13.0628633499146,13.0750942230225,13.087347984314,13.0996246337891,13.1119241714478,13.1242475509644,13.1365928649902,13.1489629745483,13.1613550186157,13.173770904541,13.1862106323242,13.1986742019653,13.21116065979,13.2236709594727,13.2362041473389,13.2487621307373,13.2613439559937,13.2739515304565,13.2865858078003,13.299243927002,13.3119258880615,13.324631690979,13.337363243103,13.3501176834106,13.3628969192505,13.3757009506226,13.3885297775269,13.4013824462891,13.4142608642578,13.4271631240845,13.4400901794434,13.4530429840088,13.4660205841064,13.4790229797363,13.5129251480103,13.5221929550171,13.5314741134644,13.5407676696777,13.5500745773315,13.5737142562866,13.6083326339722,13.6431293487549,13.6781034469604,13.7132568359375,13.748592376709,13.7841100692749,13.8198118209839,13.8556985855103,13.8917722702026,13.9280347824097,13.9644870758057,14.0011301040649,14.0379667282104,14.0749969482422,14.1122236251831,14.1496477127075,14.1872701644897,14.2250938415527,14.2631196975708,14.3013486862183,14.3397836685181,14.3784265518188,14.4172773361206,14.4563388824463,14.4956121444702,14.5350999832153,14.5748043060303,14.614725112915,14.6548652648926,14.6952266693115,14.7358102798462,14.7766199111938,14.8176555633545,14.8589200973511,14.9004144668579,14.9421415328979,14.9841032028198,15.0263013839722,15.0687370300293,15.1114139556885,15.154333114624,15.1974964141846,15.2409067153931,15.2845649719238,15.3610439300537,15.4564447402954,15.5530385971069,15.6508464813232,0,0,0,0,0,0,0,0,0,0,0,0,0,0,0,0,0,0,0,0,0,0,0,0,0,0,0,0,0,0,0,0,0,0,0,0,0,0,0,0,0,0,0,0,0,0,0,0,0,0,0,0,0,0,0,0,0,0,0,0,0,0,0,0,0,0,0,0,0,0,0,0,0,0,0,0,0,0,0,0,0,0,0,0,0,0,0,0,0,0,0,0,0,0,0,0,0,0,0,0,0,0,0,0,0,0,0,0,0,0,0,0,0,0,0,0,0,0,0,0,0,0,0,0
11.9672660827637,11.9775352478027,11.9878215789795,11.9981250762939,12.0084476470947,12.0187873840332,12.0291442871094,12.0395202636719,12.0499134063721,12.0603246688843,12.0707540512085,12.0812015533447,12.0916662216187,12.1021499633789,12.1126518249512,12.1231718063354,12.1337099075317,12.1442670822144,12.1548414230347,12.1654348373413,12.1760473251343,12.1866779327393,12.1973266601562,12.2079944610596,12.2186803817749,12.2293853759766,12.2401094436646,12.2508525848389,12.2616138458252,12.2723941802979,12.2831935882568,12.2940120697021,12.3048496246338,12.3157062530518,12.3265819549561,12.3374767303467,12.3483915328979,12.3593254089355,12.3702783584595,12.3812503814697,12.3922424316406,12.4032545089722,12.4142847061157,12.4253358840942,12.4364061355591,12.4474964141846,12.4586067199707,12.4697360992432,12.4808855056763,12.4920558929443,12.5032453536987,12.5144548416138,12.5256843566895,12.5369348526001,12.5482053756714,12.5594959259033,12.5708065032959,12.5821380615234,12.5934896469116,12.6048612594604,12.6162548065186,12.627667427063,12.6391019821167,12.6505565643311,12.6620321273804,12.6735286712646,12.6850461959839,12.6965837478638,12.7081432342529,12.7197237014771,12.7313251495361,12.7429475784302,12.7545919418335,12.7662572860718,12.777943611145,12.7896509170532,12.801381111145,12.8131313323975,12.8249044418335,12.8366985321045,12.8485145568848,12.8603515625,12.8722114562988,12.8840932846069,12.89599609375,12.9079217910767,12.9198694229126,12.9318389892578,12.9438304901123,12.9558448791504,12.9678812026978,12.9799394607544,12.9920206069946,13.0041246414185,13.0162506103516,13.0283994674683,13.0405702590942,13.0527591705322,13.0649719238281,13.0772066116333,13.0894641876221,13.1017446517944,13.1140480041504,13.1263751983643,13.1387252807617,13.1510992050171,13.1634950637817,13.1759157180786,13.1883592605591,13.2008256912231,13.2133169174194,13.2258310317993,13.2383689880371,13.2509307861328,13.2635164260864,13.2761259078979,13.2887601852417,13.301417350769,13.3140993118286,13.3268051147461,13.3395357131958,13.3522901535034,13.3650693893433,13.3778734207153,13.3907012939453,13.4035558700562,13.4164381027222,13.4293451309204,13.4422769546509,13.4552335739136,13.4682149887085,13.5180435180664,13.5273189544678,13.5374231338501,13.5718564987183,13.606466293335,13.6412525177002,13.6762170791626,13.7113609313965,13.7466869354248,13.7821941375732,13.8178863525391,13.8537635803223,13.8898267745972,13.9260787963867,13.9625205993652,13.9991540908813,14.0359802246094,14.0729999542236,14.1102161407471,14.1476287841797,14.1852407455444,14.2230539321899,14.2610683441162,14.2992868423462,14.3377113342285,14.3763418197632,14.4151821136475,14.4542322158813,14.4934940338135,14.5329704284668,14.5726623535156,14.6125717163086,14.6527004241943,14.6930494308472,14.73362159729,14.7744188308716,14.8154420852661,14.8566942214966,14.8981761932373,14.9398908615112,14.981840133667,15.0240249633789,15.0664482116699,15.1091117858887,15.1520175933838,15.1951684951782,15.238564491272,15.2822103500366,15.3261060714722,15.404468536377,15.5004119873047,15.5975570678711,0,0,0,0,0,0,0,0,0,0,0,0,0,0,0,0,0,0,0,0,0,0,0,0,0,0,0,0,0,0,0,0,0,0,0,0,0,0,0,0,0,0,0,0,0,0,0,0,0,0,0,0,0,0,0,0,0,0,0,0,0,0,0,0,0,0,0,0,0,0,0,0,0,0,0,0,0,0,0,0,0,0,0,0,0,0,0,0,0,0,0,0,0,0,0,0,0,0,0,0,0,0,0,0,0,0,0,0,0,0,0,0,0,0,0,0,0,0,0,0,0,0,0
11.9280920028687,11.9382944107056,11.9485130310059,11.9587497711182,11.9690036773682,11.9792757034302,11.9895648956299,11.9998722076416,12.010196685791,12.0205402374268,12.0309000015259,12.0412788391113,12.0516748428345,12.0620889663696,12.0725212097168,12.082971572876,12.0934400558472,12.1039266586304,12.1144313812256,12.1249542236328,12.1354961395264,12.1460552215576,12.1566333770752,12.1672306060791,12.1778450012207,12.1884784698486,12.1991310119629,12.2098016738892,12.2204914093018,12.2311992645264,12.2419271469116,12.2526721954346,12.2634372711182,12.2742204666138,12.28502368927,12.2958450317383,12.3066864013672,12.3175458908081,12.3284254074097,12.3393230438232,12.3502407073975,12.361177444458,12.3721342086792,12.3831100463867,12.3941049575806,12.4051198959351,12.4161548614502,12.4272089004517,12.4382820129395,12.4493761062622,12.4604892730713,12.471622467041,12.4827747344971,12.4939479827881,12.5051412582397,12.5163545608521,12.527587890625,12.5388412475586,12.5501146316528,12.561408996582,12.5727233886719,12.5840578079224,12.5954132080078,12.6067886352539,12.618185043335,12.6296014785767,12.6410398483276,12.6524972915649,12.6639766693115,12.6754770278931,12.6869974136353,12.6985397338867,12.7101020812988,12.7216863632202,12.7332906723022,12.7449169158936,12.7565650939941,12.7682332992554,12.7799234390259,12.7916355133057,12.8033685684204,12.8151226043701,12.8268995285034,12.8386974334717,12.8505163192749,12.8623580932617,12.8742208480835,12.8861064910889,12.8980131149292,12.9099426269531,12.9218940734863,12.9338674545288,12.9458627700806,12.9578800201416,12.9699201583862,12.9819831848145,12.994068145752,13.006175994873,13.0183057785034,13.0304584503174,13.0426340103149,13.0548324584961,13.0670537948608,13.0792970657349,13.0915641784668,13.1038541793823,13.1161670684814,13.1285037994385,13.1408576965332,13.1532354354858,13.1656360626221,13.1780605316162,13.1905078887939,13.2029790878296,13.2154741287231,13.2279920578003,13.2405347824097,13.2531003952026,13.2656898498535,13.2783041000366,13.2909412384033,13.3036031723022,13.3162899017334,13.3289995193481,13.3417339324951,13.3544931411743,13.3672761917114,13.3800840377808,13.3929166793823,13.4057731628418,13.4186553955078,13.4315614700317,13.4444932937622,13.5138969421387,13.5355758666992,13.5699996948242,13.6045999526978,13.6393766403198,13.6743316650391,13.7094659805298,13.7447814941406,13.7802791595459,13.8159608840942,13.8518285751343,13.887882232666,13.9241237640381,13.9605550765991,13.9971780776978,14.0339937210083,14.0710029602051,14.108208656311,14.1456108093262,14.1832122802734,14.2210140228271,14.2590179443359,14.2972259521484,14.335638999939,14.3742580413818,14.4130868911743,14.4521255493164,14.4913768768311,14.5308408737183,14.5705213546753,14.6104192733765,14.6505355834961,14.6908731460571,14.7314329147339,14.7722177505493,14.8132295608521,14.8544683456421,14.895938873291,14.9376411437988,14.9795770645142,15.02174949646,15.0641593933105,15.1068105697632,15.1497030258179,15.1928405761719,15.2362241744995,15.2798557281494,15.3237380981445,15.3678731918335,15.4481401443481,15.5446290969849,15.6423320770264,0,0,0,0,0,0,0,0,0,0,0,0,0,0,0,0,0,0,0,0,0,0,0,0,0,0,0,0,0,0,0,0,0,0,0,0,0,0,0,0,0,0,0,0,0,0,0,0,0,0,0,0,0,0,0,0,0,0,0,0,0,0,0,0,0,0,0,0,0,0,0,0,0,0,0,0,0,0,0,0,0,0,0,0,0,0,0,0,0,0,0,0,0,0,0,0,0,0,0,0,0,0,0,0,0,0,0,0,0,0,0,0,0,0,0,0,0,0,0,0,0
11.8891744613647,11.8993091583252,11.9094619750977,11.9196319580078,11.9298191070557,11.9400234222412,11.9502458572388,11.960485458374,11.970742225647,11.9810171127319,11.9913091659546,12.0016193389893,12.0119476318359,12.0222930908203,12.0326566696167,12.0430383682251,12.0534372329712,12.0638542175293,12.0742902755737,12.0847434997559,12.09521484375,12.1057043075562,12.1162118911743,12.1267385482788,12.137282371521,12.1478452682495,12.1584272384644,12.1690263748169,12.1796445846558,12.1902809143066,12.2009363174438,12.2116107940674,12.2223033905029,12.2330141067505,12.2437448501587,12.2544937133789,12.2652616500854,12.2760486602783,12.2868537902832,12.2976789474487,12.3085231781006,12.3193864822388,12.3302688598633,12.3411703109741,12.3520908355713,12.3630313873291,12.3739910125732,12.3849697113037,12.3959684371948,12.4069862365723,12.4180240631104,12.4290819168091,12.4401588439941,12.4512557983398,12.4623718261719,12.4735088348389,12.4846649169922,12.4958419799805,12.5070381164551,12.5182542800903,12.5294914245605,12.5407476425171,12.5520248413086,12.5633220672607,12.5746402740479,12.5859785079956,12.597336769104,12.6087160110474,12.6201162338257,12.6315364837646,12.6429777145386,12.6544389724731,12.665922164917,12.6774253845215,12.6889495849609,12.7004947662354,12.712061882019,12.7236490249634,12.7352571487427,12.7468872070312,12.7585382461548,12.7702112197876,12.7819042205811,12.7936201095581,12.8053560256958,12.8171148300171,12.8288946151733,12.8406963348389,12.8525190353394,12.8643646240234,12.8762311935425,12.8881206512451,12.9000310897827,12.9119634628296,12.9239187240601,12.9358959197998,12.9478950500488,12.9599170684814,12.9719610214233,12.9840269088745,12.9961156845093,13.0082273483276,13.0203609466553,13.0325174331665,13.0446968078613,13.0568990707397,13.0691242218018,13.0813722610474,13.0936431884766,13.1059370040894,13.1182537078857,13.13059425354,13.1429576873779,13.1553440093994,13.1677541732788,13.1801881790161,13.192645072937,13.2051258087158,13.2176294326782,13.2301540374756,13.2427005767822,13.2552700042725,13.2678642272949,13.2804822921753,13.2931241989136,13.3057899475098,13.3184804916382,13.3311948776245,13.3439331054688,13.3566961288452,13.3694839477539,13.3822965621948,13.3951320648193,13.4079942703247,13.5005025863647,13.5337285995483,13.5681438446045,13.6027336120605,13.6375007629395,13.6724462509155,13.7075710296631,13.7428770065308,13.7783651351929,13.8140363693237,13.8498935699463,13.8859376907349,13.9221696853638,13.9585905075073,13.9952030181885,14.0320081710815,14.0690069198608,14.1062021255493,14.143593788147,14.1811847686768,14.2189750671387,14.25696849823,14.2951650619507,14.3335666656494,14.3721752166748,14.4109926223755,14.4500198364258,14.4892597198486,14.528712272644,14.5683813095093,14.6082668304443,14.6483716964722,14.6886968612671,14.7292451858521,14.7700176239014,14.811017036438,14.8522443771362,14.8937015533447,14.9353914260864,14.9773149490356,15.019474029541,15.0618724822998,15.1045093536377,15.1473894119263,15.1905136108398,15.2338838577271,15.2775020599365,15.3213710784912,15.3654928207397,15.4098691940308,15.4920597076416,15.5890998840332,0,0,0,0,0,0,0,0,0,0,0,0,0,0,0,0,0,0,0,0,0,0,0,0,0,0,0,0,0,0,0,0,0,0,0,0,0,0,0,0,0,0,0,0,0,0,0,0,0,0,0,0,0,0,0,0,0,0,0,0,0,0,0,0,0,0,0,0,0,0,0,0,0,0,0,0,0,0,0,0,0,0,0,0,0,0,0,0,0,0,0,0,0,0,0,0,0,0,0,0,0,0,0,0,0,0,0,0,0,0,0,0,0,0,0,0,0,0,0,0
11.8505086898804,11.8605785369873,11.8706645965576,11.8807687759399,11.8908891677856,11.9010276794434,11.9111824035645,11.9213552474976,11.9315452575684,11.9417533874512,11.9519786834717,11.9622211456299,11.9724807739258,11.9827585220337,11.9930543899536,12.0033674240112,12.0136985778809,12.0240468978882,12.0344133377075,12.0447978973389,12.0552005767822,12.0656204223633,12.0760593414307,12.0865154266357,12.0969896316528,12.1074829101562,12.1179933547974,12.1285228729248,12.1390705108643,12.1496362686157,12.1602201461792,12.170823097229,12.1814441680908,12.192084312439,12.2027425765991,12.2134199142456,12.2241153717041,12.2348299026489,12.2455635070801,12.2563161849976,12.2670869827271,12.2778768539429,12.288685798645,12.2995138168335,12.3103609085083,12.3212270736694,12.3321132659912,12.343017578125,12.3539419174194,12.3648853302002,12.3758478164673,12.386830329895,12.3978319168091,12.4088535308838,12.4198942184448,12.4309549331665,12.4420356750488,12.4531354904175,12.4642562866211,12.475396156311,12.4865560531616,12.4977350234985,12.5089349746704,12.5201549530029,12.5313949584961,12.5426559448242,12.5539360046387,12.5652370452881,12.5765581130981,12.5879001617432,12.5992622375488,12.6106443405151,12.6220474243164,12.6334714889526,12.6449165344238,12.6563816070557,12.6678676605225,12.6793746948242,12.6909027099609,12.7024517059326,12.7140216827393,12.7256126403809,12.7372245788574,12.7488584518433,12.7605123519897,12.7721891403198,12.7838859558105,12.7956047058105,12.8073453903198,12.8191070556641,12.8308906555176,12.8426961898804,12.8545227050781,12.8663721084595,12.8782424926758,12.8901348114014,12.9020490646362,12.9139862060547,12.9259443283081,12.9379253387451,12.9499282836914,12.9619541168213,12.9740018844604,12.9860715866089,12.9981641769409,13.0102796554565,13.0224170684814,13.0345783233643,13.0467615127563,13.0589666366577,13.071195602417,13.0834474563599,13.0957221984863,13.1080198287964,13.1203413009644,13.1326856613159,13.1450529098511,13.1574430465698,13.1698570251465,13.1822948455811,13.1947555541992,13.2072401046753,13.2197484970093,13.2322807312012,13.2448358535767,13.2574157714844,13.27001953125,13.2826471328735,13.295298576355,13.3079738616943,13.3206720352173,13.3333902359009,13.3461332321167,13.3589010238647,13.477912902832,13.4976511001587,13.5318822860718,13.5662870407104,13.6008682250977,13.6356258392334,13.6705617904663,13.7056770324707,13.7409725189209,13.7764511108398,13.8121128082275,13.8479595184326,13.883994102478,13.9202156066895,13.9566268920898,13.9932289123535,14.0300235748291,14.0670118331909,14.1041955947876,14.1415767669678,14.1791572570801,14.2169370651245,14.254919052124,14.2931051254272,14.3314952850342,14.3700933456421,14.408899307251,14.4479150772095,14.4871425628662,14.5265846252441,14.5662412643433,14.6061153411865,14.6462087631226,14.6865215301514,14.7270584106445,14.7678184509277,14.8088054656982,14.8500204086304,14.8914651870728,14.9331426620483,14.9750537872314,15.0172004699707,15.0595846176147,15.1022100448608,15.145076751709,15.1881866455078,15.2315435409546,15.2751493453979,15.3190040588379,15.363112449646,15.4074754714966,15.4520950317383,15.536229133606,15.6338262557983,0,0,0,0,0,0,0,0,0,0,0,0,0,0,0,0,0,0,0,0,0,0,0,0,0,0,0,0,0,0,0,0,0,0,0,0,0,0,0,0,0,0,0,0,0,0,0,0,0,0,0,0,0,0,0,0,0,0,0,0,0,0,0,0,0,0,0,0,0,0,0,0,0,0,0,0,0,0,0,0,0,0,0,0,0,0,0,0,0,0,0,0,0,0,0,0,0,0,0,0,0,0,0,0,0,0,0,0,0,0,0,0,0,0,0,0,0,0
11.8378877639771,11.840446472168,11.8430061340332,11.8455677032471,11.8522129058838,11.8622856140137,11.8723745346069,11.8824815750122,11.8926048278809,11.9027462005615,11.9129047393799,11.9230804443359,11.9332733154297,11.9434833526611,11.9537115097046,11.9639568328857,11.9742202758789,11.9845008850098,11.9947996139526,12.0051155090332,12.0154495239258,12.0258016586304,12.0361709594727,12.046558380127,12.0569639205933,12.0673866271973,12.0778284072876,12.0882883071899,12.09876537323,12.1092615127563,12.1197757720947,12.1303081512451,12.1408586502075,12.1514272689819,12.1620149612427,12.1726207733154,12.1832447052002,12.1938877105713,12.2045497894287,12.2152299880981,12.2259292602539,12.2366466522217,12.2473831176758,12.2581386566162,12.2689123153687,12.2797060012817,12.2905178070068,12.3013496398926,12.3121995925903,12.3230695724487,12.3339586257935,12.3448657989502,12.3557939529419,12.3667402267456,12.37770652771,12.3886919021606,12.399697303772,12.4107217788696,12.4217662811279,12.4328298568726,12.4439134597778,12.4550170898438,12.4661407470703,12.4772834777832,12.4884471893311,12.4996299743652,12.5108327865601,12.5220565795898,12.533299446106,12.544563293457,12.5558471679688,12.5671520233154,12.5784769058228,12.5898218154907,12.6011877059937,12.6125736236572,12.6239805221558,12.6354074478149,12.6468553543091,12.6583242416382,12.6698141098022,12.6813249588013,12.6928558349609,12.7044086456299,12.7159814834595,12.7275762557983,12.7391920089722,12.7508296966553,12.762487411499,12.7741670608521,12.7858686447144,12.7975912094116,12.8093347549438,12.8211002349854,12.8328876495361,12.8446960449219,12.8565273284912,12.8683795928955,12.8802537918091,12.8921499252319,12.9040679931641,12.9160089492798,12.9279708862305,12.9399557113647,12.9519624710083,12.9639921188354,12.9760437011719,12.9881172180176,13.0002136230469,13.0123329162598,13.0244741439819,13.0366382598877,13.0488252639771,13.06103515625,13.0732679367065,13.0855236053467,13.0978021621704,13.1101036071777,13.122428894043,13.1347770690918,13.1471481323242,13.1595430374146,13.1719608306885,13.1844139099121,13.2013397216797,13.2183084487915,13.2353210449219,13.2523775100708,13.2694787979126,13.2866239547729,13.3038129806519,13.3210468292236,13.338324546814,13.3556480407715,13.4553995132446,13.4645891189575,13.4958143234253,13.5300359725952,13.564432144165,13.5990037918091,13.6337518692017,13.6686773300171,13.7037830352783,13.7390689849854,13.7745380401611,13.8101892471313,13.8460264205933,13.8820505142212,13.9182615280151,13.954662322998,13.9912548065186,14.0280389785767,14.065016746521,14.1021900177002,14.1395606994629,14.1771306991577,14.2149000167847,14.2528705596924,14.2910451889038,14.3294248580933,14.3680114746094,14.4068059921265,14.4458103179932,14.4850273132324,14.5244569778442,14.5641021728516,14.603964805603,14.6440458297729,14.68434715271,14.724871635437,14.7656202316284,14.8065948486328,14.8477973937988,14.8892297744751,14.9308938980103,14.9727926254272,15.0149269104004,15.0572986602783,15.099910736084,15.1427640914917,15.1858615875244,15.2292051315308,15.2727966308594,15.3166389465332,15.3607330322266,15.4050817489624,15.4496879577637,15.4945526123047,15.5806522369385,0,0,0,0,0,0,0,0,0,0,0,0,0,0,0,0,0,0,0,0,0,0,0,0,0,0,0,0,0,0,0,0,0,0,0,0,0,0,0,0,0,0,0,0,0,0,0,0,0,0,0,0,0,0,0,0,0,0,0,0,0,0,0,0,0,0,0,0,0,0,0,0,0,0,0,0,0,0,0,0,0,0,0,0,0,0,0,0,0,0,0,0,0,0,0,0,0,0,0,0,0,0,0,0,0,0,0,0,0,0,0,0,0,0,0,0,0
11.8474197387695,11.8499822616577,11.8525457382202,11.8551111221313,11.8576765060425,11.8602437973022,11.8628120422363,11.865382194519,11.8679523468018,11.8705244064331,11.8740854263306,11.8841943740845,11.8943214416504,11.9044647216797,11.914626121521,11.9248046875,11.935001373291,11.9452142715454,11.9554452896118,11.9656944274902,11.975959777832,11.9862442016602,11.9965448379517,12.0068645477295,12.017201423645,12.0275564193726,12.0379285812378,12.048318862915,12.0587272644043,12.0691537857056,12.0795984268188,12.0900611877441,12.1005420684814,12.1110410690308,12.1215581893921,12.1320934295654,12.1426467895508,12.1532192230225,12.1638097763062,12.1744184494019,12.1850461959839,12.1956920623779,12.2063570022583,12.2170400619507,12.2277421951294,12.2384634017944,12.2492027282715,12.2599620819092,12.2707395553589,12.2815361022949,12.292350769043,12.3031854629517,12.3140392303467,12.324912071228,12.3358039855957,12.346715927124,12.3576459884644,12.3685960769653,12.3795652389526,12.3905544281006,12.4015626907349,12.4125909805298,12.423638343811,12.4347057342529,12.4457931518555,12.4568996429443,12.4680261611938,12.479172706604,12.4903392791748,12.5015258789062,12.5127325057983,12.5239591598511,12.5352058410645,12.5464735031128,12.5577602386475,12.5690679550171,12.5803956985474,12.5917444229126,12.6031131744385,12.6145029067993,12.6259126663208,12.6373443603516,12.6487951278687,12.660267829895,12.671760559082,12.6832752227783,12.6948099136353,12.7063655853271,12.7179431915283,12.7295417785645,12.7411603927612,12.7528009414673,12.7644634246826,12.7761459350586,12.7878513336182,12.7995767593384,12.8113250732422,12.823094367981,12.8348846435547,12.846697807312,12.8585319519043,12.8703880310059,12.8822660446167,12.8941659927368,12.9060878753662,12.9180316925049,12.9299983978271,12.9421415328979,12.9584503173828,12.9748001098633,12.9911918640137,13.0076246261597,13.0240993499756,13.0406150817871,13.0571737289429,13.0737743377686,13.0904169082642,13.1071014404297,13.1238288879395,13.1405992507935,13.1574125289917,13.1742687225342,13.1911687850952,13.2081117630005,13.2250986099243,13.2421283721924,13.2592029571533,13.2763214111328,13.2934837341309,13.3106908798218,13.3279418945312,13.3452386856079,13.3625793457031,13.3799638748169,13.4329614639282,13.442120552063,13.4599380493164,13.4939775466919,13.528190612793,13.5625772476196,13.5971393585205,13.6318778991699,13.6667938232422,13.7018899917603,13.7371664047241,13.7726249694824,13.8082666397095,13.8440942764282,13.8801078796387,13.9163084030151,13.9526996612549,13.9892807006836,14.0260543823242,14.0630226135254,14.1001853942871,14.1375455856323,14.1751041412354,14.2128629684448,14.2508230209351,14.2889862060547,14.3273544311523,14.3659296035767,14.4047136306763,14.4437065124512,14.4829120635986,14.5223302841187,14.5619640350342,14.6018142700195,14.6418838500977,14.6821737289429,14.7226858139038,14.7634220123291,14.8043842315674,14.8455743789673,14.8869953155518,14.9286470413208,14.9705324172974,15.0126543045044,15.0550127029419,15.0976114273071,15.1404523849487,15.183536529541,15.2268667221069,15.2704448699951,15.3142738342285,15.3583545684814,15.4026899337769,15.4472808837891,15.4921321868896,15.5372447967529,15.6253290176392,0,0,0,0,0,0,0,0,0,0,0,0,0,0,0,0,0,0,0,0,0,0,0,0,0,0,0,0,0,0,0,0,0,0,0,0,0,0,0,0,0,0,0,0,0,0,0,0,0,0,0,0,0,0,0,0,0,0,0,0,0,0,0,0,0,0,0,0,0,0,0,0,0,0,0,0,0,0,0,0,0,0,0,0,0,0,0,0,0,0,0,0,0,0,0,0,0,0,0,0,0,0,0,0,0,0,0,0,0,0,0,0,0,0,0
11.8569660186768,11.8595323562622,11.8621006011963,11.8646697998047,11.8672399520874,11.8698110580444,11.8723831176758,11.8749570846558,11.8775320053101,11.8801078796387,11.8826847076416,11.8852624893188,11.8878412246704,11.8904218673706,11.8930034637451,11.8955860137939,11.8981695175171,11.9061851501465,11.9163484573364,11.9265308380127,11.9367294311523,11.946946144104,11.9571800231934,11.9674310684204,11.9777002334595,11.9879875183105,11.9982919692993,12.0086135864258,12.0189533233643,12.0293111801147,12.0396871566772,12.0500802993774,12.0604915618896,12.0709218978882,12.0813694000244,12.0918350219727,12.1023187637329,12.1128206253052,12.1233406066895,12.1338787078857,12.1444358825684,12.155011177063,12.1656045913696,12.1762170791626,12.1868476867676,12.1974973678589,12.2081651687622,12.2188510894775,12.2295570373535,12.2402811050415,12.2510242462158,12.2617855072021,12.2725658416748,12.2833662033081,12.2941846847534,12.3050222396851,12.3158798217773,12.3267555236816,12.3376502990723,12.3485651016235,12.3594989776611,12.3704519271851,12.3814249038696,12.3924169540405,12.4034290313721,12.4144601821899,12.4255113601685,12.4365816116333,12.4476728439331,12.4587821960449,12.4699125289917,12.4810628890991,12.4922323226929,12.5034227371216,12.5146322250366,12.5258626937866,12.5371122360229,12.5483827590942,12.5596742630005,12.5709848403931,12.5823163986206,12.5936689376831,12.6050405502319,12.61643409729,12.6278476715088,12.6392822265625,12.6507368087769,12.6622123718262,12.6737089157104,12.685227394104,12.6967658996582,12.7083253860474,12.7199068069458,12.7315082550049,12.7431316375732,12.7717485427856,12.7876300811768,12.8035516738892,12.8195133209229,12.8355140686035,12.8515548706055,12.867636680603,12.8837585449219,12.899920463562,12.9161224365234,12.9323663711548,12.9486503601074,12.9649753570557,12.9813423156738,12.9977502822876,13.0142002105713,13.0306911468506,13.0472240447998,13.0637989044189,13.080415725708,13.0970754623413,13.1137771606445,13.130521774292,13.1473093032837,13.1641397476196,13.1810140609741,13.1979303359985,13.2148904800415,13.231894493103,13.2489423751831,13.2660341262817,13.2831707000732,13.3003511428833,13.3175754547119,13.3348455429077,13.3521595001221,13.3695182800293,13.3869209289551,13.401481628418,13.4105978012085,13.4197263717651,13.4288663864136,13.4581108093262,13.4921417236328,13.5263452529907,13.5607223510742,13.5952749252319,13.6300039291382,13.6649112701416,13.6999969482422,13.7352638244629,13.770712852478,13.8063449859619,13.8421621322632,13.8781652450562,13.9143562316895,13.9507369995117,13.9873085021973,14.0240716934204,14.0610284805298,14.098180770874,14.1355304718018,14.1730785369873,14.210825920105,14.2487754821777,14.2869281768799,14.3252859115601,14.3638496398926,14.4026212692261,14.4416036605835,14.4807968139648,14.5202045440674,14.5598258972168,14.5996646881104,14.6397228240967,14.6800003051758,14.7205009460449,14.7612247467041,14.8021745681763,14.8433532714844,14.8847608566284,14.9264001846313,14.9682731628418,15.0103816986084,15.0527276992798,15.0953140258789,15.1381416320801,15.1812124252319,15.2245292663574,15.2680940628052,15.3119087219238,15.3559761047363,15.4002981185913,15.4448757171631,15.4897127151489,15.5348110198975,15.5801725387573,0,0,0,0,0,0,0,0,0,0,0,0,0,0,0,0,0,0,0,0,0,0,0,0,0,0,0,0,0,0,0,0,0,0,0,0,0,0,0,0,0,0,0,0,0,0,0,0,0,0,0,0,0,0,0,0,0,0,0,0,0,0,0,0,0,0,0,0,0,0,0,0,0,0,0,0,0,0,0,0,0,0,0,0,0,0,0,0,0,0,0,0,0,0,0,0,0,0,0,0,0,0,0,0,0,0,0,0,0,0,0,0,0,0
11.866527557373,11.8690986633301,11.8716707229614,11.8742437362671,11.8768177032471,11.8793935775757,11.8819704055786,11.8845481872559,11.8871269226074,11.8897066116333,11.8922882080078,11.8948698043823,11.8974533081055,11.9000377655029,11.9026231765747,11.9052095413208,11.9077978134155,11.9103870391846,11.9129772186279,11.9155683517456,11.9181604385376,11.9207534790039,11.9233484268188,11.9282560348511,11.938458442688,11.9486780166626,11.9589147567749,11.9691696166992,11.9794416427612,11.9897308349609,12.0000381469727,12.0103635787964,12.0207061767578,12.0310668945312,12.0414457321167,12.0518426895142,12.0622568130493,12.0726900100708,12.08314037323,12.0936088562012,12.1040954589844,12.1146011352539,12.1251239776611,12.1356658935547,12.1462259292603,12.1568040847778,12.1674013137817,12.1780166625977,12.1886501312256,12.1993026733398,12.2099733352661,12.2206630706787,12.2313718795776,12.2420988082886,12.2528448104858,12.2636098861694,12.2743940353394,12.2851972579956,12.2960195541382,12.3068599700928,12.317720413208,12.3285999298096,12.3394994735718,12.350417137146,12.3613548278809,12.3723115921021,12.3832874298096,12.3942832946777,12.4052982330322,12.4163331985474,12.4273881912231,12.4384622573853,12.449556350708,12.4606695175171,12.4718036651611,12.4829568862915,12.4941301345825,12.5053234100342,12.5165376663208,12.5277709960938,12.5390253067017,12.5502996444702,12.5615940093994,12.5729084014893,12.5842437744141,12.5955991744995,12.6069755554199,12.618371963501,12.629789352417,12.641227722168,12.6526861190796,12.6641654968262,12.6756658554077,12.6871871948242,12.6987295150757,12.7102928161621,12.7218770980835,12.8258991241455,12.8419160842896,12.8579730987549,12.8740711212158,12.8902082443237,12.9063863754272,12.9226055145264,12.9388656616211,12.9551658630371,12.971508026123,12.9878911972046,13.0043153762817,13.0207815170288,13.0372896194458,13.0538387298584,13.0704307556152,13.087064743042,13.103741645813,13.1204605102539,13.1372222900391,13.1540269851685,13.1708745956421,13.18776512146,13.2046995162964,13.2216768264771,13.2386989593506,13.2557640075684,13.272873878479,13.2900276184082,13.307225227356,13.3244676589966,13.3339796066284,13.3430032730103,13.3520402908325,13.3610887527466,13.3701496124268,13.379222869873,13.3883085250854,13.397406578064,13.4065170288086,13.4224348068237,13.4562854766846,13.490306854248,13.5245008468628,13.5588684082031,13.5934114456177,13.6281309127808,13.663028717041,13.6981048583984,13.733362197876,13.7688007354736,13.8044233322144,13.8402299880981,13.8762235641479,13.9124040603638,13.9487743377686,13.9853353500366,14.0220890045166,14.0590353012085,14.0961771011353,14.1335163116455,14.1710529327393,14.2087898254395,14.2467288970947,14.2848701477051,14.3232164382935,14.3617696762085,14.4005308151245,14.4395008087158,14.4786834716797,14.5180788040161,14.5576887130737,14.5975160598755,14.6375617980957,14.677827835083,14.718316078186,14.7590284347534,14.7999658584595,14.8411321640015,14.8825273513794,14.9241542816162,14.9660148620605,15.0081100463867,15.050443649292,15.0930166244507,15.1358308792114,15.1788892745972,15.2221927642822,15.2657442092896,15.3095455169678,15.3535995483398,15.3979072570801,15.4424715042114,15.4872941970825,15.5323781967163,15.5777254104614,15.614426612854,0,0,0,0,0,0,0,0,0,0,0,0,0,0,0,0,0,0,0,0,0,0,0,0,0,0,0,0,0,0,0,0,0,0,0,0,0,0,0,0,0,0,0,0,0,0,0,0,0,0,0,0,0,0,0,0,0,0,0,0,0,0,0,0,0,0,0,0,0,0,0,0,0,0,0,0,0,0,0,0,0,0,0,0,0,0,0,0,0,0,0,0,0,0,0,0,0,0,0,0,0,0,0,0,0,0,0,0,0,0,0,0
11.8761043548584,11.878680229187,11.8812561035156,11.8838338851929,11.8864116668701,11.888991355896,11.8915719985962,11.894154548645,11.8967370986938,11.8993215560913,11.9019069671631,11.9044933319092,11.9070806503296,11.9096689224243,11.9122591018677,11.9148502349854,11.917441368103,11.9200353622437,11.9226293563843,11.9252243041992,11.9278211593628,11.9304189682007,11.9330177307129,11.9356174468994,11.9382181167603,11.9408206939697,11.9434242248535,11.9460287094116,11.948634147644,11.9543924331665,11.9610424041748,11.9709091186523,11.9811840057373,11.9914770126343,12.0017881393433,12.0121164321899,12.0224618911743,12.032826423645,12.0432081222534,12.0536079406738,12.0640258789062,12.0744619369507,12.0849151611328,12.0953874588013,12.1058778762817,12.1163864135742,12.1269121170044,12.1374578475952,12.1480207443237,12.1586027145386,12.1692028045654,12.1798210144043,12.1904582977295,12.201114654541,12.2117891311646,12.2224817276001,12.233193397522,12.2439241409302,12.2546739578247,12.2654418945312,12.2762298583984,12.2870359420776,12.2978610992432,12.308705329895,12.3195695877075,12.330451965332,12.3413543701172,12.3522758483887,12.3632164001465,12.3741760253906,12.3851556777954,12.3961544036865,12.4071731567383,12.4182119369507,12.4292697906494,12.4403467178345,12.4514446258545,12.4625616073608,12.4736986160278,12.4848556518555,12.4960317611694,12.5072288513184,12.5184459686279,12.5296831130981,12.540940284729,12.5522184371948,12.5635166168213,12.5748348236084,12.5861730575562,12.5975322723389,12.6089115142822,12.6203117370605,12.6317329406738,12.6431741714478,12.6546363830566,12.6661195755005,12.6776237487793,12.6891489028931,12.7006940841675,12.8805112838745,12.8966655731201,12.912859916687,12.9290952682495,12.9453706741333,12.961688041687,12.9780464172363,12.9944458007812,13.0108871459961,13.0273694992065,13.0438938140869,13.0604610443115,13.0770692825317,13.0937204360962,13.1104135513306,13.1271495819092,13.143928527832,13.1607503890991,13.1776151657104,13.1945238113403,13.2114753723145,13.2284708023071,13.245509147644,13.2582311630249,13.2671527862549,13.276086807251,13.2850332260132,13.2939910888672,13.3029613494873,13.3119440078735,13.3209381103516,13.3299446105957,13.338963508606,13.3479948043823,13.3570375442505,13.3660936355591,13.3751611709595,13.384241104126,13.3933334350586,13.420618057251,13.454460144043,13.4884719848633,13.5226564407349,13.5570154190063,13.5915489196777,13.6262588500977,13.6611461639404,13.6962127685547,13.7314605712891,13.7668895721436,13.8025016784668,13.8382987976074,13.8742818832397,13.9104528427124,13.946813583374,13.9833641052246,14.0201063156128,14.0570430755615,14.0941743850708,14.1315021514893,14.1690282821655,14.2067546844482,14.2446823120117,14.2828130722046,14.3211479187012,14.3596897125244,14.3984394073486,14.4373989105225,14.4765701293945,14.5159540176392,14.555552482605,14.5953683853149,14.635401725769,14.6756563186646,14.7161321640015,14.7568321228027,14.797758102417,14.8389110565186,14.8802938461304,14.9219083786011,14.9637565612793,15.0058393478394,15.0481605529785,15.0907201766968,15.1335210800171,15.1765661239624,15.2198572158813,15.2633953094482,15.3071823120117,15.3512229919434,15.3955163955688,15.4400672912598,15.4790191650391,15.5064754486084,15.534029006958,15.5616807937622,15.597487449646,0,0,0,0,0,0,0,0,0,0,0,0,0,0,0,0,0,0,0,0,0,0,0,0,0,0,0,0,0,0,0,0,0,0,0,0,0,0,0,0,0,0,0,0,0,0,0,0,0,0,0,0,0,0,0,0,0,0,0,0,0,0,0,0,0,0,0,0,0,0,0,0,0,0,0,0,0,0,0,0,0,0,0,0,0,0,0,0,0,0,0,0,0,0,0,0,0,0,0,0,0,0,0,0,0,0,0,0,0,0
11.8856973648071,11.888277053833,11.8908567428589,11.8934383392334,11.8960208892822,11.8986053466797,11.9011898040771,11.9037761688232,11.9063634872437,11.9089517593384,11.9115409851074,11.9141311645508,11.9167232513428,11.9193162918091,11.9219102859497,11.9245052337646,11.9271011352539,11.9296989440918,11.9322967529297,11.9348964691162,11.9374971389771,11.9400997161865,11.942702293396,11.9453067779541,11.9479122161865,11.9505186080933,11.9531259536743,11.9557342529297,11.9583444595337,11.9637632369995,11.9704236984253,11.9770908355713,11.9837665557861,11.9904489517212,11.9971389770508,12.0038356781006,12.0105409622192,12.0172529220581,12.0239734649658,12.0307006835938,12.0374355316162,12.0441780090332,12.0509281158447,12.0576858520508,12.0657987594604,12.0762376785278,12.0866947174072,12.0971698760986,12.1076631546021,12.1181745529175,12.1287040710449,12.1392526626587,12.1498184204102,12.1604032516479,12.1710071563721,12.1816282272339,12.1922693252563,12.2029275894165,12.2136058807373,12.2243013381958,12.2350168228149,12.2457504272461,12.2565031051636,12.2672748565674,12.2780656814575,12.288875579834,12.2997035980225,12.3105516433716,12.321418762207,12.3323040008545,12.3432092666626,12.3541345596313,12.3650779724121,12.3760414123535,12.3870248794556,12.3980264663696,12.4090490341187,12.420090675354,12.4311513900757,12.442232131958,12.453332901001,12.4644536972046,12.4755935668945,12.4867544174194,12.4979343414307,12.5091352462769,12.5203552246094,12.5315961837769,12.542857170105,12.5541381835938,12.5654392242432,12.5767612457275,12.5881032943726,12.5994653701782,12.6108484268188,12.6222524642944,12.6336765289307,12.6451215744019,12.656587600708,12.6680746078491,12.9193391799927,12.9355907440186,12.95188331604,12.9682168960571,12.9845914840698,13.0010080337524,13.0174655914307,13.0339651107788,13.0505056381226,13.0670890808105,13.0837144851685,13.1003828048706,13.1170930862427,13.133846282959,13.1506423950195,13.1674814224243,13.1833391189575,13.19215965271,13.2009935379028,13.2098388671875,13.218695640564,13.2275638580322,13.2364444732666,13.2453374862671,13.2542419433594,13.2631587982178,13.272087097168,13.2810277938843,13.2899808883667,13.2989454269409,13.3079223632812,13.3169116973877,13.3259124755859,13.3349256515503,13.3439512252808,13.3529891967773,13.36203956604,13.3711013793945,13.3851404190063,13.4188022613525,13.4526348114014,13.4866380691528,13.5208129882812,13.5551624298096,13.5896863937378,13.6243867874146,13.6592645645142,13.6943216323853,13.7295598983765,13.7649784088135,13.8005809783936,13.836368560791,13.8723421096802,13.9085025787354,13.9448518753052,13.9813928604126,14.0181245803833,14.0550508499146,14.0921716690063,14.1294889450073,14.1670045852661,14.204719543457,14.242636680603,14.2807559967041,14.3190803527832,14.357611656189,14.3963499069214,14.4352979660034,14.4744567871094,14.5138292312622,14.5534162521362,14.5932207107544,14.6332426071167,14.6734848022461,14.7139492034912,14.7546367645264,14.7955503463745,14.8366918563843,14.87806224823,14.9196634292603,14.9614992141724,15.0035696029663,15.045877456665,15.0884237289429,15.1312122344971,15.174243927002,15.2175216674805,15.2610464096069,15.30482006073,15.3459386825562,15.3729248046875,15.4000062942505,15.4271821975708,15.4544553756714,15.4818239212036,15.5092906951904,15.5392465591431,15.5810146331787,0,0,0,0,0,0,0,0,0,0,0,0,0,0,0,0,0,0,0,0,0,0,0,0,0,0,0,0,0,0,0,0,0,0,0,0,0,0,0,0,0,0,0,0,0,0,0,0,0,0,0,0,0,0,0,0,0,0,0,0,0,0,0,0,0,0,0,0,0,0,0,0,0,0,0,0,0,0,0,0,0,0,0,0,0,0,0,0,0,0,0,0,0,0,0,0,0,0,0,0,0,0,0,0,0,0,0,0
11.8953056335449,11.8978891372681,11.9004735946655,11.9030590057373,11.9056463241577,11.9082345962524,11.9108228683472,11.9134140014648,11.9160051345825,11.9185972213745,11.9211912155151,11.9237861633301,11.9263820648193,11.9289789199829,11.9315767288208,11.9341764450073,11.9367771148682,11.939377784729,11.9419813156128,11.9445848464966,11.9471893310547,11.9497957229614,11.9524030685425,11.9550113677979,11.9576206207275,11.9602317810059,11.9628429412842,11.9654560089111,11.9680700302124,11.9731483459473,11.9798192977905,11.9864978790283,11.9931831359863,11.9998760223389,12.0065765380859,12.0132846832275,12.0199995040894,12.02672290802,12.0334529876709,12.0401916503906,12.0469369888306,12.053689956665,12.060450553894,12.0672187805176,12.0739946365356,12.0807781219482,12.0875692367554,12.094367980957,12.1011753082275,12.1079893112183,12.1148109436035,12.1216402053833,12.1284770965576,12.1353225708008,12.1421747207642,12.1490354537964,12.1559038162231,12.1627788543701,12.1728115081787,12.1834363937378,12.1940803527832,12.2047424316406,12.2154226303101,12.2261228561401,12.2368402481079,12.2475776672363,12.2583332061768,12.2691087722778,12.2799024581909,12.2907152175903,12.3015470504761,12.3123979568481,12.3232679367065,12.3341569900513,12.3450660705566,12.3559942245483,12.3669414520264,12.3779077529907,12.3888940811157,12.3998994827271,12.410924911499,12.4219694137573,12.4330339431763,12.4441184997559,12.4552221298218,12.4663467407227,12.4774904251099,12.4886541366577,12.4998378753662,12.5110416412354,12.5222654342651,12.5335092544556,12.5447731018066,12.5560579299927,12.5673627853394,12.5786876678467,12.590033531189,12.6013994216919,12.6127862930298,12.6241931915283,12.6356210708618,12.6470699310303,12.9747514724731,12.9911432266235,13.0075759887695,13.0240497589111,13.040566444397,13.0571241378784,13.0737247467041,13.0903673171997,13.1070518493652,13.1180105209351,13.1267442703247,13.1354904174805,13.144248008728,13.1530170440674,13.1617975234985,13.1705904006958,13.1793947219849,13.18821144104,13.1970386505127,13.2058782577515,13.2147302627563,13.223593711853,13.2324695587158,13.2413568496704,13.2502555847168,13.2591667175293,13.2680902481079,13.2770252227783,13.2859725952148,13.2949323654175,13.3039035797119,13.3128871917725,13.3218832015991,13.3308906555176,13.3399105072021,13.3489427566528,13.3579874038696,13.3833341598511,13.4169874191284,13.4508104324341,13.4848041534424,13.518970489502,13.5533103942871,13.5878248214722,13.6225156784058,13.6573839187622,13.6924314498901,13.7276592254639,13.7630681991577,13.7986612319946,13.8344383239746,13.8704013824463,13.9065523147583,13.942892074585,13.9794216156006,14.0161437988281,14.0530595779419,14.0901689529419,14.1274766921997,14.1649808883667,14.2026853561401,14.2405920028687,14.2787008285522,14.3170137405396,14.3555326461792,14.3942604064941,14.4331970214844,14.4723453521729,14.5117053985596,14.5512809753418,14.5910739898682,14.6310834884644,14.671314239502,14.711766242981,14.7524423599243,14.7933435440063,14.83447265625,14.8758306503296,14.9174194335938,14.9592428207397,15.0012998580933,15.0435953140259,15.0861291885376,15.1289043426514,15.1719226837158,15.2151279449463,15.2416553497314,15.2682752609253,15.2949886322021,15.321795463562,15.3486967086792,15.3756923675537,15.4027824401855,15.4299688339233,15.4572515487671,15.4846305847168,15.5228958129883,15.5645751953125,15.6064796447754,0,0,0,0,0,0,0,0,0,0,0,0,0,0,0,0,0,0,0,0,0,0,0,0,0,0,0,0,0,0,0,0,0,0,0,0,0,0,0,0,0,0,0,0,0,0,0,0,0,0,0,0,0,0,0,0,0,0,0,0,0,0,0,0,0,0,0,0,0,0,0,0,0,0,0,0,0,0,0,0,0,0,0,0,0,0,0,0,0,0,0,0,0,0,0,0,0,0,0,0,0,0,0,0,0
11.9049291610718,11.9075164794922,11.9101057052612,11.9126958847046,11.9152870178223,11.9178791046143,11.9204721450806,11.9230670928955,11.9256620407104,11.928258895874,11.9308567047119,11.9334554672241,11.936056137085,11.9386568069458,11.9412593841553,11.9438629150391,11.9464673995972,11.9490737915039,11.9516801834106,11.954288482666,11.9568977355957,11.9595079421997,11.962119102478,11.964732170105,11.9673461914062,11.9699602127075,11.9725770950317,11.975193977356,11.9778118133545,11.9825487136841,11.9892301559448,11.9959182739258,12.0026149749756,12.0093183517456,12.0160293579102,12.0227479934692,12.0294742584229,12.0362071990967,12.0429487228394,12.0496969223022,12.056453704834,12.0632171630859,12.0699882507324,12.0767679214478,12.0835542678833,12.0903482437134,12.0971508026123,12.1039600372314,12.1107769012451,12.1176023483276,12.1244344711304,12.131275177002,12.1381235122681,12.1449794769287,12.1518421173096,12.1587142944336,12.1655931472778,12.1724796295166,12.1793746948242,12.1862764358521,12.1931867599487,12.2001056671143,12.20703125,12.2139654159546,12.2209072113037,12.2278566360474,12.2348146438599,12.2417793273926,12.2487535476685,12.2557344436646,12.2627239227295,12.2709426879883,12.2817392349243,12.292555809021,12.3033905029297,12.3142442703247,12.3251180648804,12.3360109329224,12.3469228744507,12.3578538894653,12.3688039779663,12.3797740936279,12.3907642364502,12.4017724990845,12.4128017425537,12.4238500595093,12.4349174499512,12.4460048675537,12.4571123123169,12.4682397842407,12.4793872833252,12.490553855896,12.5017414093018,12.5129480361938,12.5241756439209,12.5354232788086,12.5466909408569,12.5579786300659,12.5692873001099,12.5806159973145,12.5919647216797,12.6033344268799,12.6147241592407,12.6261348724365,13.0306415557861,13.0446891784668,13.0533256530762,13.0619745254517,13.0706338882446,13.0793056488037,13.0879878997803,13.0966825485229,13.1053876876831,13.1141052246094,13.1228342056274,13.1315746307373,13.1403274536133,13.1490917205811,13.1578664779663,13.166654586792,13.1754531860352,13.1842641830444,13.1930866241455,13.2019214630127,13.2107677459717,13.2196254730225,13.2284955978394,13.2373781204224,13.2462720870972,13.2551774978638,13.2640953063965,13.2730255126953,13.2819671630859,13.2909212112427,13.2998876571655,13.3088655471802,13.3178558349609,13.3268585205078,13.3358726501465,13.3480529785156,13.3815279006958,13.4151725769043,13.4489860534668,13.4829711914062,13.5171279907227,13.5514583587646,13.5859632492065,13.620644569397,13.6555032730103,13.690541267395,13.7257595062256,13.7611589431763,13.7967414855957,13.8325090408325,13.8684616088867,13.9046030044556,13.9409322738647,13.9774513244629,14.0141630172729,14.0510683059692,14.0881681442261,14.1254644393921,14.1629581451416,14.2006521224976,14.2385473251343,14.2766447067261,14.3149471282959,14.3534555435181,14.3921718597412,14.4310970306396,14.4702339172363,14.5095825195312,14.5491466522217,14.5889272689819,14.6289253234863,14.6691436767578,14.709584236145,14.7502479553223,14.7911367416382,14.8322534561157,14.8735990524292,14.9151763916016,14.9569864273071,14.9990310668945,15.0413131713867,15.0838346481323,15.1126089096069,15.1387796401978,15.1650409698486,15.1913938522339,15.2178382873535,15.2443752288818,15.2710046768188,15.2977275848389,15.3245439529419,15.3514547348022,15.3784599304199,15.4055604934692,15.4327564239502,15.4652090072632,15.5065793991089,15.548171043396,15.5899868011475,0,0,0,0,0,0,0,0,0,0,0,0,0,0,0,0,0,0,0,0,0,0,0,0,0,0,0,0,0,0,0,0,0,0,0,0,0,0,0,0,0,0,0,0,0,0,0,0,0,0,0,0,0,0,0,0,0,0,0,0,0,0,0,0,0,0,0,0,0,0,0,0,0,0,0,0,0,0,0,0,0,0,0,0,0,0,0,0,0,0,0,0,0,0,0,0,0,0,0,0,0,0,0
11.914568901062,11.9171600341797,11.919753074646,11.9223470687866,11.9249429702759,11.9275388717651,11.930136680603,11.9327354431152,11.9353351593018,11.9379358291626,11.9405384063721,11.9431409835815,11.9457454681396,11.9483509063721,11.9509572982788,11.9535655975342,11.9561748504639,11.9587841033936,11.9613952636719,11.9640073776245,11.9666213989258,11.9692354202271,11.971851348877,11.9744682312012,11.9770860671997,11.9797058105469,11.982325553894,11.9849472045898,11.98756980896,11.99196434021,11.9986553192139,12.0053548812866,12.0120611190796,12.0187749862671,12.0254974365234,12.0322265625,12.0389623641968,12.0457067489624,12.0524587631226,12.0592184066772,12.0659847259521,12.0727596282959,12.0795412063599,12.0863313674927,12.09312915802,12.0999336242676,12.106746673584,12.1135673522949,12.1203947067261,12.1272306442261,12.1340742111206,12.1409254074097,12.1477842330933,12.1546506881714,12.1615257263184,12.1684074401855,12.1752977371216,12.1821956634521,12.1891012191772,12.1960153579712,12.2029361724854,12.2098655700684,12.2168025970459,12.223747253418,12.2307004928589,12.2376613616943,12.2446298599243,12.2516069412231,12.2585916519165,12.2655839920044,12.2725839614868,12.2795934677124,12.2866096496582,12.2936344146729,12.300666809082,12.3077077865601,12.3147563934326,12.3218126296997,12.32887840271,12.3359508514404,12.3430318832397,12.3501214981079,12.3572187423706,12.3643245697021,12.3714380264282,12.3816413879395,12.3926343917847,12.4036464691162,12.4146785736084,12.4257297515869,12.4368009567261,12.4478921890259,12.4590034484863,12.4701337814331,12.4812841415405,12.4924545288086,12.5036449432373,12.514856338501,12.526086807251,12.5373373031616,12.5486087799072,12.5599002838135,12.5712118148804,12.5825443267822,12.5938968658447,13.0235986709595,13.0322074890137,13.0408277511597,13.0494594573975,13.0581026077271,13.0667572021484,13.0754232406616,13.0841007232666,13.0927896499634,13.1014909744263,13.1102027893066,13.1189270019531,13.1276617050171,13.1364088058472,13.145167350769,13.153938293457,13.1627206802368,13.1715145111084,13.1803197860718,13.1891374588013,13.1979665756226,13.2068071365356,13.2156600952148,13.2245254516602,13.2334012985229,13.2422904968262,13.2511911392212,13.260103225708,13.2690277099609,13.27796459198,13.2869129180908,13.2958736419678,13.3048458099365,13.3138313293457,13.3228282928467,13.3462562561035,13.3797235488892,13.4133577346802,13.4471626281738,13.4811382293701,13.5152854919434,13.5496063232422,13.5841026306152,13.6187744140625,13.6536235809326,13.6886520385742,13.7238597869873,13.7592496871948,13.7948226928711,13.8305797576904,13.8665227890015,13.9026536941528,13.9389724731445,13.9754819869995,14.0121831893921,14.0490779876709,14.0861673355103,14.1234531402588,14.1609363555908,14.198618888855,14.2365036010742,14.2745904922485,14.3128814697266,14.3513784408569,14.3900833129883,14.4289970397949,14.4681224822998,14.5074605941772,14.5470132827759,14.58678150177,14.6267681121826,14.6669750213623,14.7074031829834,14.7480545043945,14.7889318466187,14.8300361633301,14.8713693618774,14.9129333496094,14.9547309875488,14.9857292175293,15.0114622116089,15.0372829437256,15.063193321228,15.0891933441162,15.1152830123901,15.1414632797241,15.1677341461182,15.1940956115723,15.2205505371094,15.2470960617065,15.2737350463867,15.3004674911499,15.3272933959961,15.3542137145996,15.3812294006348,15.4083395004272,15.449013710022,15.4902973175049,15.5318021774292,15.5735292434692,0,0,0,0,0,0,0,0,0,0,0,0,0,0,0,0,0,0,0,0,0,0,0,0,0,0,0,0,0,0,0,0,0,0,0,0,0,0,0,0,0,0,0,0,0,0,0,0,0,0,0,0,0,0,0,0,0,0,0,0,0,0,0,0,0,0,0,0,0,0,0,0,0,0,0,0,0,0,0,0,0,0,0,0,0,0,0,0,0,0,0,0,0,0,0,0,0,0,0,0,0
11.9242238998413,11.9268198013306,11.9294166564941,11.9320154190063,11.9346141815186,11.9372148513794,11.9398164749146,11.9424200057983,11.9450235366821,11.9476289749146,11.9502353668213,11.9528427124023,11.9554510116577,11.9580612182617,11.9606714248657,11.9632835388184,11.9658966064453,11.9685115814209,11.9711265563965,11.9737434387207,11.9763603210449,11.9789800643921,11.9815998077393,11.9842205047607,11.9868431091309,11.9894666671753,11.992091178894,11.9947166442871,11.9973440170288,12.0013942718506,12.008095741272,12.0148057937622,12.0215225219727,12.028247833252,12.0349798202515,12.0417194366455,12.0484666824341,12.0552215576172,12.0619840621948,12.068754196167,12.0755319595337,12.0823173522949,12.0891094207764,12.0959100723267,12.1027183532715,12.1095342636108,12.1163578033447,12.1231889724731,12.1300277709961,12.1368741989136,12.1437292098999,12.1505908966064,12.1574611663818,12.1643390655518,12.1712236404419,12.1781177520752,12.1850185394287,12.1919269561768,12.1988439559937,12.2057685852051,12.212700843811,12.2196416854858,12.2265892028809,12.2335453033447,12.2405099868774,12.2474813461304,12.2544612884521,12.2614498138428,12.2684450149536,12.2754487991333,12.2824611663818,12.2894811630249,12.2965087890625,12.3035449981689,12.3105888366699,12.3176403045654,12.3247003555298,12.331768989563,12.3388452529907,12.3459300994873,12.3530225753784,12.3601226806641,12.3672323226929,12.3743495941162,12.3814744949341,12.3886079788208,12.3957500457764,12.4028997421265,12.4100580215454,12.4172248840332,12.4243993759155,12.4315824508667,12.4387741088867,12.4459733963013,12.4531812667847,12.4603977203369,12.467622756958,12.4748554229736,12.4831819534302,12.4943561553955,12.5055503845215,12.5167636871338,12.5279979705811,12.539252281189,12.5505275726318,12.561821937561,12.5731372833252,13.0197496414185,13.0283536911011,13.0369691848755,13.0455951690674,13.0542335510254,13.0628824234009,13.0715436935425,13.0802164077759,13.0889005661011,13.0975952148438,13.1063022613525,13.1150207519531,13.1237516403198,13.132493019104,13.1412467956543,13.1500120162964,13.1587886810303,13.1675777435303,13.1763772964478,13.1851902008057,13.1940135955811,13.2028493881226,13.2116966247559,13.2205562591553,13.2294273376465,13.2383108139038,13.2472057342529,13.2561130523682,13.2650327682495,13.2739639282227,13.2829065322876,13.2918615341187,13.3008289337158,13.3111696243286,13.3444604873657,13.3779182434082,13.4115438461304,13.4453401565552,13.4793062210083,13.5134439468384,13.5477561950684,13.5822420120239,13.616904258728,13.651743888855,13.6867628097534,13.7219610214233,13.7573413848877,13.7929039001465,13.8286514282227,13.8645849227905,13.9007043838501,13.9370136260986,13.9735126495361,14.0102043151855,14.0470876693726,14.0841665267944,14.1214418411255,14.15891456604,14.1965866088867,14.2344598770142,14.272536277771,14.3108158111572,14.3493022918701,14.3879957199097,14.4268980026245,14.4660120010376,14.5053386688232,14.5448799133301,14.5846366882324,14.6246118545532,14.6648063659668,14.7052221298218,14.7458620071411,14.7867269515991,14.8278188705444,14.8609619140625,14.8862676620483,14.911660194397,14.9371385574341,14.9627046585083,14.9883584976196,15.0141000747681,15.0399303436279,15.0658502578735,15.0918588638306,15.1179580688477,15.1441469192505,15.1704273223877,15.1967992782593,15.2232627868652,15.2498178482056,15.2764663696289,15.3032083511353,15.3300447463989,15.3569746017456,15.3918743133545,15.4328527450562,15.4740495681763,15.5154666900635,15.5571060180664,15.598970413208,0,0,0,0,0,0,0,0,0,0,0,0,0,0,0,0,0,0,0,0,0,0,0,0,0,0,0,0,0,0,0,0,0,0,0,0,0,0,0,0,0,0,0,0,0,0,0,0,0,0,0,0,0,0,0,0,0,0,0,0,0,0,0,0,0,0,0,0,0,0,0,0,0,0,0,0,0,0,0,0,0,0,0,0,0,0,0,0,0,0,0,0,0,0,0,0,0,0
11.9338941574097,11.9364938735962,11.9390954971313,11.9416980743408,11.9443016052246,11.946907043457,11.9495124816895,11.9521198272705,11.9547281265259,11.9573373794556,11.9599485397339,11.9625597000122,11.9651727676392,11.9677867889404,11.970401763916,11.9730176925659,11.9756355285645,11.978253364563,11.9808731079102,11.9834938049316,11.9861164093018,11.9887390136719,11.9913635253906,11.9939889907837,11.9966154098511,11.9992427825928,12.0018720626831,12.0045022964478,12.0071334838867,12.010838508606,12.0175514221191,12.0242710113525,12.0309991836548,12.0377340316772,12.0444774627686,12.0512275695801,12.0579853057861,12.064751625061,12.0715246200562,12.0783052444458,12.08509349823,12.0918893814087,12.0986928939819,12.1055040359497,12.1123237609863,12.1191501617432,12.1259841918945,12.1328268051147,12.1396760940552,12.1465339660645,12.1533994674683,12.1602725982666,12.1671533584595,12.1740417480469,12.1809377670288,12.1878423690796,12.1947546005249,12.2016744613647,12.2086019515991,12.2155380249023,12.2224817276001,12.2294330596924,12.2363920211792,12.2433595657349,12.2503347396851,12.2573175430298,12.2643089294434,12.2713079452515,12.2783155441284,12.2853298187256,12.2923536300659,12.2993841171265,12.3064241409302,12.3134708404541,12.3205261230469,12.3275899887085,12.3346614837646,12.3417406082153,12.3488283157349,12.3559246063232,12.3630285263062,12.3701410293579,12.3772611618042,12.3843898773193,12.3915271759033,12.3986721038818,12.4058256149292,12.4129867553711,12.4201574325562,12.4273357391357,12.4345216751099,12.4417161941528,12.4489192962646,12.4561309814453,12.4633512496948,12.4705791473389,12.4778156280518,12.4850606918335,12.4923143386841,12.4995756149292,12.5068464279175,12.5141248703003,12.521411895752,12.5287084579468,12.5360126495361,12.5433254241943,12.5506458282471,12.557975769043,13.0073156356812,13.0159034729004,13.0245018005371,13.0331115722656,13.0417337417603,13.0503664016724,13.0590105056763,13.067666053772,13.0763339996338,13.0850124359131,13.0937032699585,13.1024045944214,13.1111183166504,13.1198434829712,13.1285800933838,13.1373281478882,13.1460876464844,13.1548595428467,13.1636428833008,13.1724376678467,13.1812448501587,13.1900634765625,13.1988935470581,13.2077360153198,13.2165899276733,13.225456237793,13.2343339920044,13.2432241439819,13.2521257400513,13.2610397338867,13.269965171814,13.2789030075073,13.2878532409668,13.309383392334,13.3426656723022,13.3761138916016,13.4097309112549,13.4435176849365,13.4774742126465,13.5116033554077,13.5459051132202,13.5803823471069,13.6150350570679,13.6498651504517,13.6848745346069,13.7200632095337,13.7554330825806,13.7909860610962,13.8267240524292,13.8626470565796,13.898756980896,13.9350557327271,13.9715442657471,14.008225440979,14.0450983047485,14.0821666717529,14.1194314956665,14.1568937301636,14.1945552825928,14.2324171066284,14.2704820632935,14.3087511062622,14.3472261428833,14.3859090805054,14.4247999191284,14.4639024734497,14.5032176971436,14.5427465438843,14.5824918746948,14.6224546432495,14.6626377105713,14.7030420303345,14.7382555007935,14.763144493103,14.7881183624268,14.8131761550903,14.8383188247681,14.8635473251343,14.8888626098633,14.9142627716064,14.9397506713867,14.9653263092041,14.9909887313843,15.0167398452759,15.0425786972046,15.0685081481934,15.0945253372192,15.1206340789795,15.1468324661255,15.1731224060059,15.1995029449463,15.2259759902954,15.2525415420532,15.2791996002197,15.3059501647949,15.3351554870605,15.3758316040039,15.4167242050171,15.4578351974487,15.4991655349731,15.5407180786133,15.5824937820435,0,0,0,0,0,0,0,0,0,0,0,0,0,0,0,0,0,0,0,0,0,0,0,0,0,0,0,0,0,0,0,0,0,0,0,0,0,0,0,0,0,0,0,0,0,0,0,0,0,0,0,0,0,0,0,0,0,0,0,0,0,0,0,0,0,0,0,0,0,0,0,0,0,0,0,0,0,0,0,0,0,0,0,0,0,0,0,0,0,0,0,0,0,0,0,0
11.9435806274414,11.9461851119995,11.9487905502319,11.9513969421387,11.954005241394,11.9566144943237,11.9592247009277,11.9618358612061,11.9644479751587,11.96706199646,11.9696769714355,11.9722929000854,11.9749097824097,11.9775276184082,11.9801473617554,11.9827680587769,11.9853897094727,11.9880123138428,11.9906358718872,11.9932613372803,11.9958877563477,11.9985151290894,12.0011434555054,12.0037727355957,12.0064039230347,12.0090360641479,12.0116691589355,12.0143032073975,12.016939163208,12.0202980041504,12.0270214080811,12.0337524414062,12.0404901504517,12.0472364425659,12.0539903640747,12.0607509613037,12.0675191879272,12.0742959976196,12.0810794830322,12.0878715515137,12.0946702957153,12.1014766693115,12.1082916259766,12.1151132583618,12.1219434738159,12.1287813186646,12.1356258392334,12.1424789428711,12.1493396759033,12.1562080383301,12.1630849838257,12.1699686050415,12.1768608093262,12.1837596893311,12.1906671524048,12.1975831985474,12.2045059204102,12.2114372253418,12.218376159668,12.2253227233887,12.2322769165039,12.239239692688,12.2462100982666,12.2531890869141,12.2601757049561,12.2671699523926,12.2741718292236,12.2811822891235,12.288200378418,12.2952270507812,12.3022613525391,12.3093042373657,12.3163547515869,12.323413848877,12.3304805755615,12.3375549316406,12.3446378707886,12.3517293930054,12.3588285446167,12.3659362792969,12.3730516433716,12.3801755905151,12.3873071670532,12.3944473266602,12.4015960693359,12.4087524414062,12.4159173965454,12.4230909347534,12.4302730560303,12.4374628067017,12.4446611404419,12.4518671035767,12.4590816497803,12.4663057327271,12.4735374450684,12.4807767868042,12.4880256652832,12.4952821731567,12.5025472640991,12.5098209381104,12.5171031951904,12.5243940353394,12.5316934585571,12.5390014648438,12.5463180541992,12.5536432266235,12.5609769821167,12.5683193206787,12.5756692886353,12.9949054718018,13.0034761428833,13.012059211731,13.0206527709961,13.029257774353,13.0378742218018,13.046501159668,13.0551404953003,13.0637912750244,13.0724534988403,13.081127166748,13.0898122787476,13.0985088348389,13.107216835022,13.1159372329712,13.1246690750122,13.1334114074707,13.1421661376953,13.1509323120117,13.1597108840942,13.1685009002686,13.1773023605347,13.1861152648926,13.1949405670166,13.2037773132324,13.2126264572144,13.2214870452881,13.2303600311279,13.2392444610596,13.248140335083,13.2570486068726,13.2659692764282,13.2749013900757,13.3075971603394,13.3408708572388,13.3743104934692,13.4079179763794,13.4416952133179,13.475643157959,13.5097627639771,13.5440559387207,13.5785226821899,13.613166809082,13.6479873657227,13.6829862594604,13.718165397644,13.7535257339478,13.7890691757202,13.8247966766357,13.8607091903687,13.8968095779419,13.9330978393555,13.9695768356323,14.0062465667725,14.0431098937988,14.0801677703857,14.1174211502075,14.1548728942871,14.1925239562988,14.230375289917,14.2684297561646,14.3066873550415,14.3451509475708,14.3838224411011,14.4227027893066,14.4617929458618,14.5010967254639,14.5406141281128,14.5803480148315,14.6175584793091,14.6420412063599,14.6666059494019,14.6912536621094,14.7159843444824,14.7407989501953,14.7656965255737,14.790678024292,14.8157453536987,14.8408966064453,14.8661346435547,14.8914575576782,14.9168672561646,14.9423637390137,14.9679479598999,14.9936199188232,15.0193796157837,15.0452280044556,15.0711660385132,15.0971937179565,15.1233110427856,15.1495189666748,15.175817489624,15.2022075653076,15.2286901473999,15.2552652359009,15.2819328308105,15.3192310333252,15.3598232269287,15.4006309509277,15.4416551589966,15.4828987121582,15.5243635177612,15.5660514831543,15.6079635620117,0,0,0,0,0,0,0,0,0,0,0,0,0,0,0,0,0,0,0,0,0,0,0,0,0,0,0,0,0,0,0,0,0,0,0,0,0,0,0,0,0,0,0,0,0,0,0,0,0,0,0,0,0,0,0,0,0,0,0,0,0,0,0,0,0,0,0,0,0,0,0,0,0,0,0,0,0,0,0,0,0,0,0,0,0,0,0,0,0,0,0,0,0
11.9532823562622,11.9558906555176,11.9585008621216,11.9611120223999,11.9637241363525,11.9663372039795,11.9689521789551,11.9715671539307,11.9741840362549,11.9768018722534,11.9794216156006,11.9820413589478,11.9846630096436,11.9872856140137,11.9899091720581,11.9925336837769,11.9951591491699,11.9977865219116,12.0004148483276,12.003044128418,12.0056743621826,12.0083065032959,12.0109395980835,12.0135726928711,12.0162086486816,12.0188446044922,12.0214824676514,12.0241203308105,12.0267601013184,12.0297727584839,12.036506652832,12.0432481765747,12.0499973297119,12.0567531585693,12.0635175704956,12.0702896118164,12.0770683288574,12.0838556289673,12.0906505584717,12.0974521636963,12.1042623519897,12.1110801696777,12.1179056167603,12.1247386932373,12.1315793991089,12.138427734375,12.1452836990356,12.1521472930908,12.1590185165405,12.1658983230591,12.1727857589722,12.1796808242798,12.1865835189819,12.1934938430786,12.2004127502441,12.2073392868042,12.2142734527588,12.2212152481079,12.2281656265259,12.2351236343384,12.2420892715454,12.249062538147,12.2560443878174,12.2630338668823,12.2700319290161,12.2770376205444,12.2840509414673,12.291072845459,12.2981023788452,12.3051404953003,12.3121862411499,12.319239616394,12.326301574707,12.3333721160889,12.3404502868652,12.3475360870361,12.3546304702759,12.3617334365845,12.3688440322876,12.3759632110596,12.3830900192261,12.3902254104614,12.3973693847656,12.4045209884644,12.4116811752319,12.4188499450684,12.4260263442993,12.4332113265991,12.4404048919678,12.447606086731,12.454815864563,12.4620342254639,12.4692611694336,12.4764966964722,12.4837398529053,12.4909915924072,12.498251914978,12.5055208206177,12.5127983093262,12.5200843811035,12.5273790359497,12.5346813201904,12.5419931411743,12.5493125915527,12.5566415786743,12.5639781951904,12.5713243484497,12.5786781311035,12.5860414505005,12.9739751815796,12.9825191497803,12.9910736083984,12.9996395111084,13.0082168579102,13.0168056488037,13.0254049301147,13.0340166091919,13.0426387786865,13.0512733459473,13.0599184036255,13.0685758590698,13.0772438049316,13.0859241485596,13.0946159362793,13.1033191680908,13.1120338439941,13.1207599639893,13.1294975280762,13.1382465362549,13.1470079421997,13.1557807922363,13.1645660400391,13.1733617782593,13.1821699142456,13.1909894943237,13.199821472168,13.208664894104,13.2175207138062,13.2263879776001,13.2352666854858,13.2441577911377,13.2530612945557,13.2727136611938,13.305811882019,13.3390760421753,13.3725070953369,13.4061059951782,13.4398736953735,13.4738121032715,13.5079231262207,13.5422058105469,13.5766639709473,13.6112985610962,13.6461086273193,13.6810989379883,13.7162675857544,13.7516183853149,13.7871522903442,13.8228693008423,13.858772277832,13.8948621749878,13.9311408996582,13.9676094055176,14.0042686462402,14.0411214828491,14.0781688690186,14.1154127120972,14.152853012085,14.1904926300049,14.2283334732056,14.2663764953613,14.3046236038208,14.3430767059326,14.3817367553711,14.4206056594849,14.4596853256226,14.4988222122192,14.5229091644287,14.5470752716064,14.5713224411011,14.5956506729126,14.620059967041,14.6445512771606,14.6691246032715,14.6937808990479,14.7185201644897,14.7433423995972,14.7682495117188,14.7932395935059,14.8183155059814,14.8434753417969,14.8687219619751,14.8940544128418,14.919472694397,14.9449787139893,14.9705715179443,14.9962520599365,15.0220212936401,15.0478792190552,15.0738258361816,15.0998620986938,15.1259889602661,15.1522054672241,15.1785144805908,15.2049140930176,15.2314052581787,15.2630462646484,15.3033399581909,15.3438472747803,15.3845701217651,15.4255094528198,15.4666662216187,15.5080442428589,15.5496444702148,15.5914678573608,0,0,0,0,0,0,0,0,0,0,0,0,0,0,0,0,0,0,0,0,0,0,0,0,0,0,0,0,0,0,0,0,0,0,0,0,0,0,0,0,0,0,0,0,0,0,0,0,0,0,0,0,0,0,0,0,0,0,0,0,0,0,0,0,0,0,0,0,0,0,0,0,0,0,0,0,0,0,0,0,0,0,0,0,0,0,0,0,0,0,0
