11.5709047317505,11.5707225799561,11.5705394744873,11.5703573226929,11.5701751708984,11.5699920654297,11.5698099136353,11.5696268081665,11.5694446563721,11.5692625045776,11.5690793991089,11.5688972473145,11.5687141418457,11.5685319900513,11.5683498382568,11.5681667327881,11.5679845809937,11.5678024291992,11.5676193237305,11.567437171936,11.5672550201416,11.5670719146729,11.5668897628784,11.566707611084,11.5665254592896,11.5663423538208,11.5661602020264,11.5659780502319,11.5657949447632,11.5656127929688,11.5654306411743,11.5652484893799,11.5650653839111,11.5648832321167,11.5647010803223,11.5645189285278,11.5643358230591,11.5641536712646,11.5639715194702,11.5637893676758,11.5636072158813,11.5634241104126,11.5632419586182,11.5630598068237,11.5628776550293,11.5626955032349,11.5625123977661,11.5623302459717,11.5621480941772,11.5619659423828,11.5617837905884,11.5616016387939,11.5614194869995,11.5612363815308,11.5610542297363,11.5608720779419,11.5606899261475,11.560507774353,11.5603256225586,11.5601434707642,11.5599613189697,11.5597791671753,11.5595970153809,11.5594148635864,11.559232711792,11.5590505599976,11.5588684082031,11.5586853027344,11.5585031509399,11.5583209991455,11.5946226119995,11.6530141830444,11.7119970321655,11.7715797424316,11.8317718505859,11.8925828933716,11.9540214538574,12.0160989761353,12.0788240432739,12.1422080993652,12.2062606811523,12.2709922790527,12.3364143371582,12.4025373458862,12.4693737030029,12.4675903320312,12.4613332748413,12.4550819396973,12.4488363265991,12.4425973892212,12.4267702102661,12.4363231658936,12.4458904266357,12.4554719924927,12.465069770813,12.474681854248,12.4843082427979,12.493950843811,12.5036067962646,12.5132789611816,12.5229654312134,12.5326671600342,12.542384147644,12.552116394043,12.5618629455566,12.5716247558594,12.5814027786255,12.5911951065063,12.6010026931763,12.6108255386353,12.6206636428833,12.6305179595947,12.6403865814209,12.6502714157104,12.6601715087891,12.6700868606567,12.6800184249878,12.6899652481079,12.6999273300171,12.7099056243896,12.7198991775513,12.729907989502,12.739933013916,12.7499742507935,12.76003074646,12.7701034545898,12.7801923751831,12.7902965545654,12.8004169464111,12.8105535507202,12.8207063674927,12.8308753967285,12.8410596847534,12.851261138916,12.8614778518677,12.871711730957,12.8819618225098,12.8922281265259,12.9025106430054,12.9128093719482,12.9231243133545,12.9334564208984,12.9424505233765,12.9503307342529,12.9582204818726,12.9661197662354,12.974027633667,12.9819459915161,12.9898748397827,12.9978122711182,13.0057592391968,13.0137166976929,13.0216836929321,13.0296602249146,13.0376462936401,13.0456428527832,13.0536489486694,13.0616645812988,13.0696907043457,13.0777263641357,13.0857715606689,13.0938272476196,13.1018924713135,13.1099681854248,13.118052482605,13.126148223877,13.1342535018921,13.1423683166504,13.1504936218262,13.1586294174194,13.1667747497559,13.1749296188354,13.1830959320068,13.1912717819214,13.1994571685791,13.2076530456543,13.215859413147,13.2240762710571,13.2323026657104,13.2405395507812,13.2487869262695,13.257043838501,13.2653112411499,13.2735891342163,13.2818784713745,13.2901763916016,13.2984857559204,13.3068056106567,13.3151350021362,13.3234758377075,13.331826210022,13.3401880264282,13.3485593795776,13.3569421768188,13.3653345108032,13.3737382888794,13.3821516036987,13.3905763626099,13.3990116119385,13.4074573516846,13.4159135818481,13.4243812561035,13.4328584671021,13.4413471221924,13.4498462677002,13.4583568572998,13.4668769836426,13.4754085540771,13.4839515686035,13.4925050735474,13.5010690689087,13.5096435546875,13.5182294845581,13.5268268585205,13.5354337692261,13.5440530776978,13.5526828765869,13.5613231658936,13.569974899292,13.5786380767822,13.5873117446899,13.5959968566895,13.6046924591064,13.6133995056152,13.6221179962158,13.6308479309082,13.6395883560181,13.6483402252197,13.6571035385132,13.6658773422241,13.6746635437012,13.6834602355957,13.692268371582,13.7010879516602,13.7099189758301,13.7187614440918,13.7289018630981,13.7607822418213,13.7928104400635,13.824987411499,13.8573160171509,13.8897953033447,13.9224281311035,13.9552135467529,13.9881544113159,14.0212516784668,14.0545053482056,14.0879163742065,14.1214876174927,14.155219078064,14.1891117095947,14.2231674194336,14.2573871612549,14.2917709350586,14.326322555542,14.3610401153564,14.3959274291992,14.4309844970703,14.466212272644,14.501612663269,14.5371866226196,14.5729351043701,14.6088609695435,14.6449632644653,14.6812448501587,14.7177076339722,14.7543506622314,14.7911767959595,14.8281879425049,14.8653841018677,14.9027681350708,14.9534387588501,15.0203065872192,15.0877742767334,15.1558513641357,15.2245454788208,15.2938652038574,15.3638191223145,15.4344158172607,15.5056648254395,15.5775737762451,15.6501531600952,18.0280437469482,0,0,0,0,0,0,0,0,0,0,0,0,0,0,0,0,0,0,0,0,0,0,0,0,0,0,0,0,0,0,0,0,0,0,0,0,0,0,0,0,0,0,0,0,0,0,0,0,0,0,0,0,0,0,0,0,0,0,0,0,0,0,0,0,0,0,0,0,0
11.5708236694336,11.5706405639648,11.5704584121704,11.5702753067017,11.5700931549072,11.5699100494385,11.569727897644,11.5695457458496,11.5693626403809,11.5691804885864,11.5689973831177,11.5688152313232,11.5686330795288,11.5684499740601,11.5682678222656,11.5680856704712,11.5679025650024,11.567720413208,11.5675382614136,11.5673551559448,11.5671730041504,11.566990852356,11.5668077468872,11.5666255950928,11.5664434432983,11.5662603378296,11.5660781860352,11.5658960342407,11.5657138824463,11.5655307769775,11.5653486251831,11.5651664733887,11.5649843215942,11.5648012161255,11.5646190643311,11.5644369125366,11.5642547607422,11.5640716552734,11.563889503479,11.5637073516846,11.5635251998901,11.5633430480957,11.563159942627,11.5629777908325,11.5627956390381,11.5626134872437,11.5624313354492,11.5622491836548,11.562066078186,11.5618839263916,11.5617017745972,11.5615196228027,11.5613374710083,11.5611553192139,11.5609731674194,11.560791015625,11.5606079101562,11.5604257583618,11.5602436065674,11.5600614547729,11.5598793029785,11.5596971511841,11.5595149993896,11.5593328475952,11.5591506958008,11.5589685440063,11.5587863922119,11.5586042404175,11.558422088623,11.5582399368286,11.5948247909546,11.6532163619995,11.7122011184692,11.771785736084,11.8319797515869,11.8927936553955,11.95423412323,12.0163145065308,12.0790414810181,12.142427444458,12.2064819335938,12.2712163925171,12.3366413116455,12.4027662277222,12.4696054458618,12.484827041626,12.478551864624,12.4722833633423,12.4660205841064,12.4597644805908,12.3901786804199,12.3996753692627,12.4091863632202,12.4187126159668,12.4282522201538,12.4378070831299,12.447377204895,12.4569616317749,12.4665603637695,12.4761743545532,12.485803604126,12.4954471588135,12.50510597229,12.5147790908813,12.524468421936,12.5341720581055,12.5438899993896,12.5536241531372,12.5633726119995,12.5731363296509,12.5829162597656,12.5927104949951,12.602520942688,12.6123466491699,12.6221866607666,12.6320428848267,12.6419143676758,12.6518020629883,12.6617040634155,12.6716222763062,12.6815557479858,12.6915044784546,12.7014694213867,12.7114496231079,12.7214460372925,12.7314577102661,12.7414855957031,12.7515287399292,12.7615880966187,12.7716627120972,12.7817535400391,12.7918605804443,12.801983833313,12.812123298645,12.8222780227661,12.8324489593506,12.8426370620728,12.852840423584,12.8630599975586,12.8732957839966,12.8835487365723,12.893816947937,12.9041023254395,12.9144039154053,12.9247217178345,12.9350557327271,12.9454069137573,12.955774307251,12.9661588668823,12.9765596389771,12.9860591888428,12.9939918518066,13.001935005188,13.0098867416382,13.0178489685059,13.0258207321167,13.033802986145,13.0417947769165,13.0497961044312,13.057806968689,13.0658283233643,13.0738592147827,13.0818996429443,13.0899505615234,13.0980110168457,13.1060810089111,13.114161491394,13.1222524642944,13.1303520202637,13.1384630203247,13.1465835571289,13.1547136306763,13.1628541946411,13.1710052490234,13.1791658401489,13.1873369216919,13.195517539978,13.2037086486816,13.2119102478027,13.220121383667,13.2283430099487,13.2365751266479,13.2448167800903,13.2530698776245,13.2613325119019,13.2696056365967,13.277889251709,13.2861824035645,13.2944869995117,13.3028011322021,13.3111257553101,13.3194618225098,13.3278074264526,13.336163520813,13.3445301055908,13.3529071807861,13.3612947463989,13.3696937561035,13.3781023025513,13.3865213394165,13.3949518203735,13.403392791748,13.4118432998657,13.4203062057495,13.4287786483765,13.4372615814209,13.4457559585571,13.4542608261108,13.462776184082,13.471302986145,13.4798402786255,13.4883880615234,13.4969472885132,13.5055170059204,13.5140972137451,13.5226888656616,13.5312910079956,13.5399045944214,13.548529624939,13.5571641921997,13.5658111572266,13.5744686126709,13.5831365585327,13.5918169021606,13.6005067825317,13.6092090606689,13.6179218292236,13.6266460418701,13.6353816986084,13.6441278457642,13.6528854370117,13.6616544723511,13.6704349517822,13.6792259216309,13.6880292892456,13.6968431472778,13.7056684494019,13.7270984649658,13.7589702606201,13.7909898757935,13.8231592178345,13.8554782867432,13.8879489898682,13.9205732345581,13.9533500671387,13.9862823486328,14.0193700790405,14.0526142120361,14.0860176086426,14.1195793151855,14.1533012390137,14.1871852874756,14.2212314605713,14.2554416656494,14.2898168563843,14.3243579864502,14.3590669631958,14.3939437866211,14.428991317749,14.4642095565796,14.4995994567871,14.5351638793945,14.5709028244019,14.6068181991577,14.6429109573364,14.6791830062866,14.7156343460083,14.7522678375244,14.789083480835,14.8260841369629,14.8632698059082,14.9006423950195,14.9382038116455,14.9840993881226,15.0512418746948,15.1189889907837,15.1873483657837,15.256329536438,15.3259391784668,15.3961877822876,15.4670829772949,15.5386333465576,15.6108503341675,15.6837406158447,0,0,0,0,0,0,0,0,0,0,0,0,0,0,0,0,0,0,0,0,0,0,0,0,0,0,0,0,0,0,0,0,0,0,0,0,0,0,0,0,0,0,0,0,0,0,0,0,0,0,0,0,0,0,0,0,0,0,0,0,0,0,0,0,0,0,0,0
11.5707416534424,11.5705585479736,11.5703763961792,11.5701932907104,11.570011138916,11.5698289871216,11.5696458816528,11.5694637298584,11.5692806243896,11.5690984725952,11.5689163208008,11.568733215332,11.5685510635376,11.5683689117432,11.5681858062744,11.56800365448,11.5678215026855,11.5676383972168,11.5674562454224,11.5672740936279,11.5670909881592,11.5669088363647,11.5667266845703,11.5665435791016,11.5663614273071,11.5661792755127,11.5659961700439,11.5658140182495,11.5656318664551,11.5654497146606,11.5652666091919,11.5650844573975,11.564902305603,11.5647201538086,11.5645370483398,11.5643548965454,11.564172744751,11.5639905929565,11.5638084411621,11.5636253356934,11.5634431838989,11.5632610321045,11.5630788803101,11.5628967285156,11.5627136230469,11.5625314712524,11.562349319458,11.5621671676636,11.5619850158691,11.5618028640747,11.5616207122803,11.5614376068115,11.5612554550171,11.5610733032227,11.5608911514282,11.5607089996338,11.5605268478394,11.5603446960449,11.5601625442505,11.5599803924561,11.5597982406616,11.5596151351929,11.5594329833984,11.559250831604,11.5590686798096,11.5588865280151,11.5587043762207,11.5585222244263,11.5583400726318,11.5581579208374,11.595027923584,11.6534185409546,11.7124052047729,11.7719926834106,11.8321886062622,11.8930044174194,11.9544477462769,12.016529083252,12.0792589187622,12.1426477432251,12.2067041397095,12.2714405059814,12.3368673324585,12.4029960632324,12.4698362350464,12.4987678527832,12.4958181381226,12.4895324707031,12.4832525253296,12.3443765640259,12.3538026809692,12.3632440567017,12.3726987838745,12.3821687698364,12.3916530609131,12.4011516571045,12.4106645584106,12.4201927185059,12.4297351837158,12.4392929077148,12.4488649368286,12.4584512710571,12.4680528640747,12.477668762207,12.4872999191284,12.4969463348389,12.5066070556641,12.5162830352783,12.5259742736816,12.5356798171997,12.5454006195068,12.555136680603,12.5648880004883,12.5746545791626,12.5844354629517,12.5942325592041,12.6040449142456,12.6138715744019,12.6237144470215,12.6335725784302,12.6434459686279,12.6533346176147,12.6632394790649,12.6731586456299,12.6830940246582,12.6930456161499,12.7030115127563,12.7129945755005,12.7229928970337,12.7330074310303,12.7430372238159,12.7530832290649,12.7631454467773,12.7732229232788,12.7833156585693,12.7934255599976,12.8035507202148,12.8136920928955,12.8238496780396,12.834023475647,12.8442134857178,12.854419708252,12.8646421432495,12.8748807907104,12.8851356506348,12.8954067230225,12.9056940078735,12.9159984588623,12.9263191223145,12.93665599823,12.9470090866089,12.9573793411255,12.9677658081055,12.9781694412231,12.9885892868042,12.9990262985229,13.0094804763794,13.0199508666992,13.0299615859985,13.0379486083984,13.0459451675415,13.0539512634277,13.0619678497314,13.0699939727783,13.0780296325684,13.0860757827759,13.0941314697266,13.1021966934204,13.1102724075317,13.1183586120605,13.1264533996582,13.1345596313477,13.1426753997803,13.1508007049561,13.1589365005493,13.1670818328857,13.1752376556396,13.183403968811,13.1915798187256,13.1997661590576,13.2079629898071,13.2161693572998,13.22438621521,13.2326126098633,13.2408504486084,13.2490978240967,13.2573556900024,13.2656240463257,13.2739019393921,13.2821912765503,13.2904901504517,13.2987995147705,13.3071193695068,13.3154497146606,13.3237905502319,13.3321418762207,13.340503692627,13.3488750457764,13.3572578430176,13.3656511306763,13.3740549087524,13.3824691772461,13.3908948898315,13.3993301391602,13.4077758789062,13.4162330627441,13.4247007369995,13.4331789016724,13.4416675567627,13.4501676559448,13.4586782455444,13.4671993255615,13.4757308959961,13.4842739105225,13.4928274154663,13.501392364502,13.5099678039551,13.5185537338257,13.5271511077881,13.535758972168,13.5443782806396,13.5530080795288,13.5616493225098,13.5703020095825,13.5789651870728,13.5876388549805,13.59632396698,13.6050205230713,13.6137285232544,13.622447013855,13.6311769485474,13.6399183273315,13.6486701965332,13.657434463501,13.6662092208862,13.6749954223633,13.6837921142578,13.6935796737671,13.7252950668335,13.7571582794189,13.7891693115234,13.8213300704956,13.8536415100098,13.8861036300659,13.9187183380127,13.9514865875244,13.9844102859497,14.0174894332886,14.0507249832153,14.0841188430786,14.1176710128784,14.1513843536377,14.1852588653564,14.2192964553833,14.2534971237183,14.28786277771,14.3223943710327,14.3570938110352,14.3919610977173,14.4269990921021,14.4622068405151,14.4975881576538,14.5331420898438,14.5688714981079,14.6047763824463,14.6408596038818,14.6771202087402,14.7135620117188,14.7501850128174,14.7869901657104,14.8239803314209,14.8611555099487,14.8985176086426,14.9360685348511,14.9738082885742,15.0148859024048,15.0823049545288,15.1503324508667,15.2189769744873,15.2882452011108,15.3581476211548,15.428692817688,15.499888420105,15.5717439651489,15.644268989563,0,0,0,0,0,0,0,0,0,0,0,0,0,0,0,0,0,0,0,0,0,0,0,0,0,0,0,0,0,0,0,0,0,0,0,0,0,0,0,0,0,0,0,0,0,0,0,0,0,0,0,0,0,0,0,0,0,0,0,0,0,0,0,0,0,0,0
11.5706596374512,11.5704765319824,11.570294380188,11.5701122283936,11.5699291229248,11.5697469711304,11.5695638656616,11.5693817138672,11.5691995620728,11.569016456604,11.5688343048096,11.5686521530151,11.5684690475464,11.568286895752,11.5681037902832,11.5679216384888,11.5677394866943,11.5675563812256,11.5673742294312,11.5671920776367,11.567008972168,11.5668268203735,11.5666446685791,11.5664625167847,11.5662794113159,11.5660972595215,11.5659151077271,11.5657320022583,11.5655498504639,11.5653676986694,11.565185546875,11.5650024414062,11.5648202896118,11.5646381378174,11.5644559860229,11.5642728805542,11.5640907287598,11.5639085769653,11.5637264251709,11.5635442733765,11.5633611679077,11.5631790161133,11.5629968643188,11.5628147125244,11.56263256073,11.5624504089355,11.5622673034668,11.5620851516724,11.5619029998779,11.5617208480835,11.5615386962891,11.5613565444946,11.5611743927002,11.5609912872314,11.560809135437,11.5606269836426,11.5604448318481,11.5602626800537,11.5600805282593,11.5598983764648,11.5597162246704,11.559534072876,11.5593519210815,11.5591697692871,11.5589876174927,11.5588054656982,11.5586233139038,11.5584411621094,11.5582590103149,11.5580768585205,11.5952310562134,11.6536235809326,11.712610244751,11.772198677063,11.8323974609375,11.893214225769,11.9546604156494,12.0167446136475,12.0794763565063,12.1428670883179,12.2069263458252,12.2716655731201,12.3370943069458,12.4032249450684,12.4593563079834,12.4637470245361,12.4681396484375,12.4725360870361,12.2989110946655,12.3082685470581,12.3176393508911,12.3270254135132,12.3364248275757,12.3458395004272,12.3552684783936,12.3647108078003,12.3741683959961,12.3836402893066,12.3931274414062,12.4026279449463,12.4121437072754,12.4216737747192,12.4312191009521,12.4407777786255,12.4503526687622,12.4599418640137,12.4695453643799,12.4791641235352,12.4887971878052,12.4984455108643,12.5081090927124,12.5177869796753,12.5274801254272,12.5371885299683,12.5469121932983,12.5566501617432,12.5664033889771,12.5761728286743,12.5859565734863,12.5957555770874,12.6055698394775,12.6153993606567,12.625244140625,12.6351051330566,12.644980430603,12.6548719406128,12.6647787094116,12.6747007369995,12.6846389770508,12.6945924758911,12.7045612335205,12.7145462036133,12.7245464324951,12.7345628738403,12.7445945739746,12.7546424865723,12.764705657959,12.7747850418091,12.7848806381226,12.7949924468994,12.8051195144653,12.8152627944946,12.8254222869873,12.8355989456177,12.8457908630371,12.8559999465942,12.8662242889404,12.8764657974243,12.8867225646973,12.8969964981079,12.9072866439819,12.9175930023193,12.9279165267944,12.9382562637329,12.9486122131348,12.958984375,12.9693746566772,12.9797801971436,12.9902029037476,13.0006427764893,13.0110988616943,13.0215721130371,13.0320615768433,13.0425682067871,13.0530920028687,13.0636329650879,13.074161529541,13.082202911377,13.0902538299561,13.0983152389526,13.1063861846924,13.1144666671753,13.1225576400757,13.1306581497192,13.1387691497803,13.1468896865845,13.1550207138062,13.163161277771,13.1713123321533,13.1794738769531,13.1876449584961,13.1958265304565,13.2040176391602,13.2122192382812,13.2204313278198,13.2286539077759,13.2368860244751,13.2451286315918,13.253381729126,13.2616443634033,13.2699174880981,13.2782020568848,13.2864961624146,13.2947998046875,13.3031148910522,13.3114404678345,13.3197765350342,13.3281221389771,13.3364791870117,13.3448457717896,13.3532238006592,13.361611366272,13.3700103759766,13.3784198760986,13.3868398666382,13.3952703475952,13.4037113189697,13.4121627807617,13.4206256866455,13.4290981292725,13.4375820159912,13.4460763931274,13.4545822143555,13.4630975723267,13.4716243743896,13.4801626205444,13.4887104034424,13.4972696304321,13.5058403015137,13.5144214630127,13.5230131149292,13.5316162109375,13.5402297973633,13.5488548278809,13.5574903488159,13.5661373138428,13.5747957229614,13.5834646224976,13.5921440124512,13.6008348464966,13.6095371246338,13.6182508468628,13.6269750595093,13.6357107162476,13.6444578170776,13.6532163619995,13.6619853973389,13.67076587677,13.6917848587036,13.7234926223755,13.7553472518921,13.7873497009277,13.8195018768311,13.8518047332764,13.8842582702637,13.9168643951416,13.9496240615845,13.9825382232666,14.0156087875366,14.0488357543945,14.0822200775146,14.1157636642456,14.149468421936,14.1833333969116,14.2173614501953,14.2515525817871,14.2859086990356,14.3204317092896,14.3551206588745,14.3899793624878,14.4250068664551,14.4602060317993,14.4955768585205,14.5311212539673,14.566840171814,14.6027355194092,14.6388082504272,14.6750593185425,14.7114906311035,14.7481031417847,14.7848978042603,14.8218774795532,14.8590421676636,14.8963937759399,14.9339332580566,14.9716625213623,15.0095834732056,15.0476970672607,15.1134967803955,15.1818065643311,15.2507371902466,15.3202962875366,15.39049243927,15.4613351821899,15.5328330993652,15.6049947738647,15.677830696106,0,0,0,0,0,0,0,0,0,0,0,0,0,0,0,0,0,0,0,0,0,0,0,0,0,0,0,0,0,0,0,0,0,0,0,0,0,0,0,0,0,0,0,0,0,0,0,0,0,0,0,0,0,0,0,0,0,0,0,0,0,0,0,0,0
11.57057762146,11.5703954696655,11.5702123641968,11.5700302124023,11.5698471069336,11.5696649551392,11.5694828033447,11.569299697876,11.5691175460815,11.5689344406128,11.5687522888184,11.5685701370239,11.5683870315552,11.5682048797607,11.5680227279663,11.5678396224976,11.5676574707031,11.5674753189087,11.5672922134399,11.5671100616455,11.5669279098511,11.5667448043823,11.5665626525879,11.5663805007935,11.566198348999,11.5660152435303,11.5658330917358,11.5656509399414,11.5654678344727,11.5652856826782,11.5651035308838,11.5649213790894,11.5647382736206,11.5645561218262,11.5643739700317,11.5641918182373,11.5640096664429,11.5638265609741,11.5636444091797,11.5634622573853,11.5632801055908,11.5630979537964,11.5629148483276,11.5627326965332,11.5625505447388,11.5623683929443,11.5621862411499,11.5620040893555,11.5618209838867,11.5616388320923,11.5614566802979,11.5612745285034,11.561092376709,11.5609102249146,11.5607280731201,11.5605459213257,11.5603637695312,11.5601806640625,11.5599985122681,11.5598163604736,11.5596342086792,11.5594520568848,11.5592699050903,11.5590877532959,11.5589056015015,11.558723449707,11.5585412979126,11.5583591461182,11.5581769943237,11.5579948425293,11.5954341888428,11.6538286209106,11.7128143310547,11.7724056243896,11.8326063156128,11.893424987793,11.954873085022,12.0169591903687,12.0796937942505,12.1430864334106,12.2071485519409,12.2718896865845,12.3373212814331,12.4034538269043,12.4287710189819,12.4360370635986,12.4433126449585,12.4505958557129,12.2630681991577,12.2723712921143,12.2816877365112,12.2910184860229,12.3003635406494,12.3097229003906,12.3190965652466,12.3284845352173,12.3378858566284,12.3473024368286,12.3567333221436,12.3661785125732,12.375638961792,12.3851127624512,12.3946018218994,12.4041051864624,12.4136228561401,12.4231548309326,12.4327020645142,12.4422645568848,12.4518404006958,12.4614324569702,12.4710378646851,12.480658531189,12.4902944564819,12.499945640564,12.5096111297607,12.5192918777466,12.5289869308472,12.5386972427368,12.5484228134155,12.5581636428833,12.5679197311401,12.577691078186,12.5874767303467,12.5972785949707,12.6070947647095,12.6169271469116,12.6267747879028,12.6366376876831,12.6465158462524,12.6564092636108,12.6663188934326,12.6762428283691,12.686182975769,12.6961393356323,12.7061109542847,12.7160978317261,12.7261009216309,12.7361192703247,12.7461538314819,12.7562036514282,12.7662696838379,12.7763519287109,12.7864503860474,12.7965641021729,12.8066940307617,12.816840171814,12.8270015716553,12.8371801376343,12.8473749160767,12.8575849533081,12.8678121566772,12.8780546188354,12.8883142471313,12.8985900878906,12.9088821411133,12.9191904067993,12.929515838623,12.9398574829102,12.9502153396606,12.9605903625488,12.9709825515747,12.981390953064,12.9918165206909,13.0022583007812,13.0127172470093,13.023193359375,13.0336856842041,13.0441951751709,13.0547218322754,13.0652647018433,13.0758256912231,13.0864028930664,13.0969982147217,13.1076097488403,13.1182384490967,13.1267595291138,13.1348657608032,13.1429815292358,13.1511077880859,13.1592435836792,13.1673898696899,13.1755456924438,13.1837120056152,13.1918888092041,13.2000751495361,13.2082719802856,13.2164793014526,13.2246961593628,13.2329235076904,13.2411613464355,13.2494096755981,13.2576675415039,13.2659358978271,13.2742147445679,13.2825040817261,13.2908029556274,13.2991132736206,13.3074340820312,13.3157644271851,13.3241052627563,13.3324565887451,13.3408193588257,13.3491916656494,13.3575744628906,13.3659687042236,13.3743724822998,13.3827877044678,13.3912124633789,13.3996486663818,13.4080953598022,13.4165525436401,13.4250202178955,13.4334993362427,13.441987991333,13.4504880905151,13.4589996337891,13.4675207138062,13.476053237915,13.4845962524414,13.4931507110596,13.5017156600952,13.5102910995483,13.5188779830933,13.5274753570557,13.5360841751099,13.5447034835815,13.553334236145,13.561975479126,13.5706281661987,13.5792922973633,13.5879669189453,13.5966520309448,13.6053495407104,13.6140575408936,13.6227760314941,13.6315069198608,13.640248298645,13.649001121521,13.6584377288818,13.6899909973145,13.7216901779175,13.7535362243652,13.7855310440063,13.8176746368408,13.849967956543,13.8824138641357,13.9150114059448,13.9477624893188,13.9806680679321,14.013729095459,14.0469465255737,14.080322265625,14.1138572692871,14.1475524902344,14.1814079284668,14.2154264450073,14.2496089935303,14.2839555740356,14.3184690475464,14.3531494140625,14.3879976272583,14.4230155944824,14.4582042694092,14.4935655593872,14.5291004180908,14.5648097991943,14.6006946563721,14.6367568969727,14.6729984283447,14.7094192504883,14.746021270752,14.7828063964844,14.8197746276855,14.8569288253784,14.8942699432373,14.9317989349365,14.9695177078247,15.0074272155762,15.0455293655396,15.0838260650635,15.1448183059692,15.2134122848511,15.2826299667358,15.3524808883667,15.4229736328125,15.4941158294678,15.56591796875,15.638388633728,0,0,0,0,0,0,0,0,0,0,0,0,0,0,0,0,0,0,0,0,0,0,0,0,0,0,0,0,0,0,0,0,0,0,0,0,0,0,0,0,0,0,0,0,0,0,0,0,0,0,0,0,0,0,0,0,0,0,0,0,0,0,0,0
11.5704956054688,11.5703134536743,11.5701303482056,11.5699481964111,11.5697660446167,11.5695829391479,11.5694007873535,11.5692176818848,11.5690355300903,11.5688533782959,11.5686702728271,11.5684881210327,11.5683059692383,11.5681228637695,11.5679407119751,11.5677585601807,11.5675754547119,11.5673933029175,11.567211151123,11.5670280456543,11.5668458938599,11.5666637420654,11.5664806365967,11.5662984848022,11.5661163330078,11.5659332275391,11.5657510757446,11.5655689239502,11.5653867721558,11.565203666687,11.5650215148926,11.5648393630981,11.5646572113037,11.564474105835,11.5642919540405,11.5641098022461,11.5639276504517,11.5637454986572,11.5635623931885,11.563380241394,11.5631980895996,11.5630159378052,11.5628337860107,11.5626516342163,11.5624685287476,11.5622863769531,11.5621042251587,11.5619220733643,11.5617399215698,11.5615577697754,11.5613746643066,11.5611925125122,11.5610103607178,11.5608282089233,11.5606460571289,11.5604639053345,11.56028175354,11.5600996017456,11.5599174499512,11.5597352981567,11.5595531463623,11.5593709945679,11.5591878890991,11.5590057373047,11.5588235855103,11.5586414337158,11.5584592819214,11.558277130127,11.5580949783325,11.5579128265381,11.5956373214722,11.6540336608887,11.7130212783813,11.772611618042,11.8328142166138,11.8936357498169,11.9550857543945,12.0171747207642,12.0799112319946,12.1433067321777,12.2073698043823,12.2721138000488,12.3375473022461,12.4035406112671,12.4107780456543,12.418023109436,12.4252777099609,12.2181987762451,12.2274332046509,12.2366819381714,12.2459449768066,12.2552213668823,12.2645120620728,12.2738170623779,12.2831354141235,12.2924690246582,12.3018159866333,12.3111772537231,12.3205528259277,12.3299436569214,12.3393478393555,12.3487663269043,12.3581991195679,12.3676471710205,12.3771085739136,12.3865852355957,12.3960762023926,12.4055824279785,12.4151020050049,12.4246368408203,12.4341859817505,12.4437503814697,12.4533290863037,12.4629230499268,12.4725313186646,12.4821548461914,12.491792678833,12.5014457702637,12.5111131668091,12.5207958221436,12.5304937362671,12.5402069091797,12.5499353408813,12.5596780776978,12.5694360733032,12.5792093276978,12.5889978408813,12.598801612854,12.6086206436157,12.6184558868408,12.6283054351807,12.6381702423096,12.6480512619019,12.6579475402832,12.6678590774536,12.6777858734131,12.6877288818359,12.6976871490479,12.7076606750488,12.7176504135132,12.7276554107666,12.7376766204834,12.7477130889893,12.7577667236328,12.7678346633911,12.7779188156128,12.7880201339722,12.7981357574463,12.8082685470581,12.818416595459,12.8285818099976,12.8387622833252,12.8489589691162,12.8591718673706,12.8694009780884,12.8796472549438,12.8899087905884,12.9001874923706,12.9104824066162,12.9207935333252,12.9311208724976,12.9414653778076,12.9518260955811,12.9622030258179,12.9725971221924,12.9830074310303,12.9934349060059,13.0038795471191,13.0143404006958,13.0248184204102,13.0353126525879,13.0458240509033,13.0563526153564,13.0668983459473,13.0774612426758,13.0880403518677,13.0986375808716,13.1092529296875,13.1198844909668,13.1305332183838,13.1412000656128,13.1518831253052,13.1625843048096,13.1716203689575,13.1797819137573,13.1879539489746,13.1961355209351,13.204327583313,13.2125291824341,13.2207412719727,13.2289638519287,13.2371969223022,13.2454395294189,13.2536926269531,13.2619562149048,13.2702302932739,13.2785148620605,13.2868089675903,13.2951135635376,13.3034286499023,13.3117551803589,13.3200912475586,13.3284378051758,13.3367948532104,13.3451623916626,13.3535404205322,13.3619289398193,13.3703279495239,13.378737449646,13.3871574401855,13.3955888748169,13.4040298461914,13.4124822616577,13.4209451675415,13.4294185638428,13.4379024505615,13.4463977813721,13.4549026489258,13.4634199142456,13.4719467163086,13.4804849624634,13.4890336990356,13.4975929260254,13.5061635971069,13.5147457122803,13.5233373641968,13.5319414138794,13.5405550003052,13.5491800308228,13.5578165054321,13.566463470459,13.5751218795776,13.5837917327881,13.592472076416,13.6011638641357,13.6098661422729,13.618579864502,13.6273050308228,13.636040687561,13.6566524505615,13.6881971359253,13.7198886871338,13.7517261505127,13.783712387085,13.8158473968506,13.8481330871582,13.8805694580078,13.913158416748,13.9458999633789,13.9787969589233,14.0118494033813,14.0450582504272,14.0784254074097,14.1119508743286,14.1456365585327,14.1794834136963,14.213493347168,14.2476654052734,14.28200340271,14.3165063858032,14.3511772155762,14.3860168457031,14.4210252761841,14.4562044143677,14.4915552139282,14.5270805358887,14.5627794265747,14.5986547470093,14.6347074508667,14.670937538147,14.7073488235474,14.7439403533936,14.7807149887085,14.8176727294922,14.8548164367676,14.892147064209,14.9296655654907,14.9673728942871,15.0052719116211,15.043363571167,15.0816488265991,15.1201295852661,15.17626953125,15.2451486587524,15.3146572113037,15.384801864624,15.4555912017822,15.5270357131958,15.5991439819336,0,0,0,0,0,0,0,0,0,0,0,0,0,0,0,0,0,0,0,0,0,0,0,0,0,0,0,0,0,0,0,0,0,0,0,0,0,0,0,0,0,0,0,0,0,0,0,0,0,0,0,0,0,0,0,0,0,0,0,0,0,0,0
11.5704135894775,11.5702314376831,11.5700492858887,11.5698661804199,11.5696840286255,11.5695009231567,11.5693187713623,11.5691366195679,11.5689535140991,11.5687713623047,11.5685892105103,11.5684061050415,11.5682239532471,11.5680408477783,11.5678586959839,11.5676765441895,11.5674934387207,11.5673112869263,11.5671291351318,11.5669460296631,11.5667638778687,11.5665817260742,11.5663995742798,11.566216468811,11.5660343170166,11.5658521652222,11.5656690597534,11.565486907959,11.5653047561646,11.5651226043701,11.5649394989014,11.5647573471069,11.5645751953125,11.5643930435181,11.5642108917236,11.5640277862549,11.5638456344604,11.563663482666,11.5634813308716,11.5632991790771,11.5631160736084,11.562933921814,11.5627517700195,11.5625696182251,11.5623874664307,11.5622043609619,11.5620222091675,11.561840057373,11.5616579055786,11.5614757537842,11.5612936019897,11.5611114501953,11.5609292984009,11.5607461929321,11.5605640411377,11.5603818893433,11.5601997375488,11.5600175857544,11.55983543396,11.5596532821655,11.5594711303711,11.5592889785767,11.5591068267822,11.5589246749878,11.5587425231934,11.5585603713989,11.5583782196045,11.5581960678101,11.5580139160156,11.5578317642212,11.5958414077759,11.654239654541,11.7132291793823,11.7728185653687,11.8330230712891,11.8938465118408,11.9552993774414,12.0173892974854,12.0801286697388,12.1435260772705,12.207592010498,12.2723379135132,12.3377742767334,12.3856210708618,12.3928375244141,12.4000616073608,12.1736574172974,12.1828241348267,12.1920051574707,12.2012004852295,12.2104091644287,12.2196321487427,12.2288694381714,12.2381200790405,12.2473840713501,12.2566633224487,12.2659559249878,12.2752628326416,12.2845840454102,12.2939195632935,12.3032693862915,12.31263256073,12.3220109939575,12.3314027786255,12.3408098220825,12.35023021698,12.3596658706665,12.3691158294678,12.3785800933838,12.3880586624146,12.3975515365601,12.4070596694946,12.4165821075439,12.426118850708,12.4356708526611,12.445237159729,12.4548177719116,12.4644136428833,12.474024772644,12.4836502075195,12.4932909011841,12.5029458999634,12.5126161575317,12.5223016738892,12.5320014953613,12.5417165756226,12.5514469146729,12.5611925125122,12.5709533691406,12.5807285308838,12.5905199050903,12.6003255844116,12.6101474761963,12.61998462677,12.6298360824585,12.6397037506104,12.6495866775513,12.6594858169556,12.6693992614746,12.679328918457,12.6892738342285,12.6992349624634,12.7092113494873,12.7192029953003,12.7292108535767,12.7392339706421,12.7492733001709,12.7593288421631,12.7693996429443,12.779486656189,12.789589881897,12.799708366394,12.8098430633545,12.8199939727783,12.8301610946655,12.8403444290161,12.8505439758301,12.8607597351074,12.8709917068481,12.8812398910522,12.8915042877197,12.9017848968506,12.9120826721191,12.9223957061768,12.9327259063721,12.9430732727051,12.9534358978271,12.9638156890869,12.9742126464844,12.9846258163452,12.9950561523438,13.0055027008057,13.0159664154053,13.0264463424683,13.0369443893433,13.0474576950073,13.0579891204834,13.0685377120972,13.0791025161743,13.0896854400635,13.100284576416,13.1109018325806,13.1215353012085,13.1321868896484,13.1428546905518,13.1535406112671,13.1642436981201,13.1749649047852,13.1857023239136,13.1964588165283,13.2072315216064,13.2167892456055,13.2250070571899,13.2332344055176,13.2414722442627,13.2497205734253,13.2579793930054,13.2662477493286,13.2745275497437,13.2828168869019,13.2911167144775,13.2994270324707,13.3077478408813,13.3160791397095,13.3244199752808,13.3327722549438,13.3411350250244,13.3495073318481,13.3578910827637,13.3662853240967,13.3746900558472,13.3831052780151,13.3915309906006,13.3999671936035,13.4084138870239,13.4168720245361,13.4253396987915,13.4338188171387,13.4423084259033,13.4508094787598,13.4593210220337,13.4678430557251,13.476375579834,13.4849185943604,13.4934730529785,13.5020389556885,13.5106153488159,13.5192022323608,13.5278005599976,13.5364093780518,13.5450286865234,13.5536603927612,13.5623016357422,13.5709552764893,13.5796194076538,13.5882940292358,13.5969800949097,13.6056776046753,13.6143856048584,13.6234760284424,13.6548681259155,13.6864042282104,13.7180871963501,13.7499160766602,13.7818937301636,13.8140211105347,13.8462972640991,13.8787250518799,13.9113054275513,13.9440393447876,13.9769268035889,14.009970664978,14.0431709289551,14.0765285491943,14.1100454330444,14.1437215805054,14.1775598526001,14.2115592956543,14.2457227706909,14.2800512313843,14.3145456314087,14.3492069244385,14.3840360641479,14.4190349578857,14.4542045593262,14.4895458221436,14.5250606536865,14.5607500076294,14.5966148376465,14.6326570510864,14.6688785552979,14.7052783966064,14.7418603897095,14.7786245346069,14.8155717849731,14.8527050018311,14.890025138855,14.9275321960449,14.9652290344238,15.0031175613403,15.0411977767944,15.0794715881348,15.11794090271,15.1566076278687,15.2078514099121,15.2770185470581,15.3468179702759,15.4172582626343,15.4883480072021,15.5600967407227,15.6325130462646,0,0,0,0,0,0,0,0,0,0,0,0,0,0,0,0,0,0,0,0,0,0,0,0,0,0,0,0,0,0,0,0,0,0,0,0,0,0,0,0,0,0,0,0,0,0,0,0,0,0,0,0,0,0,0,0,0,0,0,0,0
11.5703325271606,11.5701494216919,11.5699672698975,11.5697841644287,11.5696020126343,11.5694198608398,11.5692367553711,11.5690546035767,11.5688714981079,11.5686893463135,11.568507194519,11.5683240890503,11.5681419372559,11.5679597854614,11.5677766799927,11.5675945281982,11.5674123764038,11.5672292709351,11.5670471191406,11.5668649673462,11.5666818618774,11.566499710083,11.5663175582886,11.5661354064941,11.5659523010254,11.565770149231,11.5655879974365,11.5654048919678,11.5652227401733,11.5650405883789,11.5648584365845,11.5646753311157,11.5644931793213,11.5643110275269,11.5641288757324,11.563946723938,11.5637636184692,11.5635814666748,11.5633993148804,11.5632171630859,11.5630350112915,11.5628519058228,11.5626697540283,11.5624876022339,11.5623054504395,11.562123298645,11.5619411468506,11.5617589950562,11.5615758895874,11.561393737793,11.5612115859985,11.5610294342041,11.5608472824097,11.5606651306152,11.5604829788208,11.5603008270264,11.5601186752319,11.5599355697632,11.5597534179688,11.5595712661743,11.5593891143799,11.5592069625854,11.559024810791,11.5588426589966,11.5586605072021,11.5584783554077,11.5582962036133,11.5581140518188,11.5579319000244,11.55774974823,11.5960445404053,11.654444694519,11.713436126709,11.7730283737183,11.8332319259644,11.8940572738647,11.955512046814,12.0176048278809,12.0803461074829,12.1437454223633,12.2078142166138,12.2725620269775,12.3380012512207,12.3677530288696,12.3749485015869,12.1294384002686,12.13853931427,12.1476535797119,12.1567821502686,12.1659240722656,12.1750793457031,12.1842489242554,12.1934328079224,12.2026300430298,12.2118406295776,12.2210655212402,12.2303047180176,12.2395572662354,12.2488241195679,12.2581052780151,12.2674007415771,12.2767095565796,12.2860326766968,12.2953701019287,12.3047218322754,12.3140878677368,12.323468208313,12.3328628540039,12.3422718048096,12.35169506073,12.3611326217651,12.370584487915,12.3800506591797,12.3895320892334,12.3990268707275,12.4085369110107,12.418062210083,12.4276008605957,12.4371557235718,12.4467239379883,12.4563074111938,12.4659051895142,12.4755182266235,12.485146522522,12.4947891235352,12.5044469833374,12.5141191482544,12.5238065719604,12.5335092544556,12.5432271957397,12.5529594421387,12.5627069473267,12.5724697113037,12.5822486877441,12.5920419692993,12.6018505096436,12.6116743087769,12.6215133666992,12.6313676834106,12.6412372589111,12.651123046875,12.6610240936279,12.6709403991699,12.680871963501,12.6908197402954,12.7007827758789,12.7107620239258,12.7207565307617,12.7307662963867,12.7407922744751,12.7508344650269,12.7608919143677,12.7709655761719,12.7810544967651,12.7911596298218,12.8012809753418,12.8114185333252,12.821572303772,12.8317422866821,12.8419275283813,12.8521289825439,12.8623476028442,12.8725824356079,12.8828325271606,12.8930997848511,12.9033832550049,12.9136829376221,12.9239988327026,12.9343318939209,12.9446811676025,12.9550476074219,12.9654293060303,12.9758291244507,12.9862442016602,12.9966773986816,13.0071268081665,13.0175924301147,13.028076171875,13.0385761260986,13.0490922927856,13.0596265792847,13.0701770782471,13.0807447433472,13.0913305282593,13.1019325256348,13.1125516891479,13.1231880187988,13.1338424682617,13.144513130188,13.1552019119263,13.1659078598022,13.1766309738159,13.1873722076416,13.198130607605,13.2089061737061,13.2196998596191,13.2305107116699,13.2413396835327,13.2521867752075,13.2622680664062,13.2705421447754,13.278826713562,13.2871217727661,13.2954273223877,13.3037433624268,13.312068939209,13.320405960083,13.3287525177002,13.3371095657349,13.3454780578613,13.353856086731,13.3622455596924,13.370644569397,13.3790550231934,13.3874759674072,13.3959064483643,13.4043483734131,13.4128007888794,13.4212646484375,13.4297380447388,13.4382228851318,13.4467182159424,13.4552240371704,13.4637413024902,13.4722690582275,13.4808073043823,13.4893560409546,13.4979162216187,13.5064878463745,13.5150690078735,13.5236616134644,13.532265663147,13.5408802032471,13.549506187439,13.5581426620483,13.5667905807495,13.5754489898682,13.5841188430786,13.5928001403809,13.6014919281006,13.6217002868652,13.6530838012695,13.6846113204956,13.7162857055664,13.7481069564819,13.7800760269165,13.8121948242188,13.8444623947144,13.8768825531006,13.9094533920288,13.9421787261963,13.9750576019287,14.0080919265747,14.0412836074829,14.0746326446533,14.1081399917603,14.1418075561523,14.1756362915039,14.2096271514893,14.2437810897827,14.2781000137329,14.3125848770142,14.3472366333008,14.3820562362671,14.4170455932617,14.4522047042847,14.4875364303589,14.5230417251587,14.5587205886841,14.594575881958,14.6306085586548,14.6668186187744,14.7032089233398,14.7397804260254,14.7765340805054,14.8134717941284,14.8505935668945,14.887903213501,14.9253997802734,14.9630861282349,15.0009632110596,15.0390329360962,15.077296257019,15.1157541275024,15.1544094085693,15.1932621002197,15.2395648956299,15.3090219497681,15.3791151046753,15.4498519897461,15.5212440490723,15.593297958374,0,0,0,0,0,0,0,0,0,0,0,0,0,0,0,0,0,0,0,0,0,0,0,0,0,0,0,0,0,0,0,0,0,0,0,0,0,0,0,0,0,0,0,0,0,0,0,0,0,0,0,0,0,0,0,0,0,0,0,0
11.5702505111694,11.5700674057007,11.5698852539062,11.5697031021118,11.5695199966431,11.5693378448486,11.5691547393799,11.5689725875854,11.568790435791,11.5686073303223,11.5684251785278,11.5682430267334,11.5680599212646,11.5678777694702,11.5676956176758,11.567512512207,11.5673303604126,11.5671482086182,11.5669651031494,11.566782951355,11.5666007995605,11.5664176940918,11.5662355422974,11.5660533905029,11.5658712387085,11.5656881332397,11.5655059814453,11.5653238296509,11.5651407241821,11.5649585723877,11.5647764205933,11.5645942687988,11.5644121170044,11.5642290115356,11.5640468597412,11.5638647079468,11.5636825561523,11.5634994506836,11.5633172988892,11.5631351470947,11.5629529953003,11.5627708435059,11.5625886917114,11.5624055862427,11.5622234344482,11.5620412826538,11.5618591308594,11.5616769790649,11.5614948272705,11.5613126754761,11.5611295700073,11.5609474182129,11.5607652664185,11.560583114624,11.5604009628296,11.5602188110352,11.5600366592407,11.5598545074463,11.5596723556519,11.5594902038574,11.559308052063,11.5591259002686,11.5589437484741,11.5587615966797,11.5585794448853,11.5583963394165,11.5582141876221,11.5580320358276,11.5578498840332,11.5576677322388,11.5962476730347,11.6546506881714,11.71364402771,11.7732381820679,11.833441734314,11.8942680358887,11.9557247161865,12.0178194046021,12.0805635452271,12.1439647674561,12.2080364227295,12.2727870941162,12.338228225708,12.3499364852905,12.0855340957642,12.0945701599121,12.1036195755005,12.1126832962036,12.1217603683472,12.1308507919312,12.1399536132812,12.1490697860718,12.1581993103027,12.1673431396484,12.1765003204346,12.1856737136841,12.194860458374,12.2040605545044,12.2132759094238,12.2225027084351,12.231743812561,12.2409992218018,12.2502679824829,12.2595510482788,12.2688484191895,12.2781600952148,12.2874851226807,12.2968244552612,12.3061790466309,12.3155469894409,12.3249292373657,12.3343257904053,12.3437366485596,12.3531627655029,12.3626022338867,12.3720560073853,12.3815250396729,12.3910083770752,12.4005060195923,12.4100179672241,12.419545173645,12.4290866851807,12.4386434555054,12.4482135772705,12.457799911499,12.4674005508423,12.4770154953003,12.4866456985474,12.4962902069092,12.5059499740601,12.515625,12.525315284729,12.5350198745728,12.5447397232056,12.5544748306274,12.5642251968384,12.5739898681641,12.5837707519531,12.5935659408569,12.6033773422241,12.6132030487061,12.6230449676514,12.6329021453857,12.6427745819092,12.6526622772217,12.6625652313232,12.6724843978882,12.6824188232422,12.6923685073853,12.7023334503174,12.7123146057129,12.7223119735718,12.7323246002197,12.7423534393311,12.7523975372314,12.7624568939209,12.772533416748,12.7826251983643,12.7927331924438,12.8028564453125,12.8129968643188,12.8231525421143,12.833324432373,12.8435125350952,12.8537168502808,12.863938331604,12.8741750717163,12.884428024292,12.8946971893311,12.9049835205078,12.9152860641479,12.9256048202515,12.9359397888184,12.9462919235229,12.9566602706909,12.9670448303223,12.9774465560913,12.987865447998,12.9983005523682,13.008752822876,13.0192213058472,13.0297069549561,13.0402097702026,13.0507287979126,13.0612649917603,13.0718183517456,13.0823888778687,13.0929765701294,13.1035814285278,13.114203453064,13.1248426437378,13.1354990005493,13.1461734771729,13.1568641662598,13.1675729751587,13.1782989501953,13.1890430450439,13.199803352356,13.2105827331543,13.221378326416,13.2321929931641,13.2430238723755,13.2538738250732,13.2647409439087,13.2756261825562,13.2865285873413,13.2974491119385,13.3080615997314,13.3163938522339,13.3247356414795,13.3330879211426,13.3414506912231,13.3498239517212,13.3582077026367,13.3666019439697,13.3750066757202,13.3834228515625,13.3918485641479,13.4002857208252,13.4087333679199,13.4171915054321,13.4256601333618,13.434139251709,13.4426298141479,13.4511299133301,13.4596424102783,13.4681644439697,13.4766979217529,13.4852418899536,13.4937963485718,13.5023622512817,13.5109386444092,13.5195264816284,13.5281248092651,13.5367345809937,13.5453548431396,13.5539855957031,13.5626287460327,13.5712814331055,13.5799465179443,13.5886936187744,13.6199245452881,13.6512994766235,13.6828193664551,13.714485168457,13.7462978363037,13.7782592773438,13.8103685379028,13.8426284790039,13.875039100647,13.9076023101807,13.940318107605,13.9731884002686,14.0062141418457,14.0393962860107,14.0727367401123,14.1062355041504,14.1398935317993,14.1737127304077,14.2076950073242,14.2418394088745,14.2761487960815,14.3106241226196,14.3452663421631,14.3800764083862,14.4150562286377,14.4502058029175,14.4855279922485,14.5210227966309,14.5566930770874,14.5925378799438,14.6285600662231,14.6647605895996,14.7011404037476,14.7377014160156,14.7744445800781,14.8113718032837,14.8484830856323,14.8857822418213,14.9232683181763,14.9609432220459,14.9988098144531,15.0368680953979,15.0751209259033,15.1135673522949,15.15221118927,15.1910533905029,15.230094909668,15.2714109420776,15.3411598205566,15.4115476608276,15.4825849533081,15.5542793273926,15.6266412734985,0,0,0,0,0,0,0,0,0,0,0,0,0,0,0,0,0,0,0,0,0,0,0,0,0,0,0,0,0,0,0,0,0,0,0,0,0,0,0,0,0,0,0,0,0,0,0,0,0,0,0,0,0,0,0,0,0,0
11.5701684951782,11.5699863433838,11.569803237915,11.5696210861206,11.5694379806519,11.5692558288574,11.569073677063,11.5688905715942,11.5687084197998,11.5685262680054,11.5683431625366,11.5681610107422,11.5679779052734,11.567795753479,11.5676136016846,11.5674304962158,11.5672483444214,11.567066192627,11.5668840408325,11.5667009353638,11.5665187835693,11.5663366317749,11.5661535263062,11.5659713745117,11.5657892227173,11.5656070709229,11.5654239654541,11.5652418136597,11.5650596618652,11.5648775100708,11.5646944046021,11.5645122528076,11.5643301010132,11.5641479492188,11.56396484375,11.5637826919556,11.5636005401611,11.5634183883667,11.5632362365723,11.5630531311035,11.5628709793091,11.5626888275146,11.5625066757202,11.5623245239258,11.5621423721313,11.5619592666626,11.5617771148682,11.5615949630737,11.5614128112793,11.5612306594849,11.5610485076904,11.560866355896,11.5606842041016,11.5605020523071,11.5603189468384,11.5601367950439,11.5599546432495,11.5597724914551,11.5595903396606,11.5594081878662,11.5592260360718,11.5590438842773,11.5588617324829,11.5586795806885,11.558497428894,11.5583152770996,11.5581331253052,11.5579509735107,11.5577688217163,11.5575866699219,11.5964508056641,11.6548557281494,11.7138519287109,11.7734479904175,11.8336534500122,11.8944787979126,11.9559373855591,12.0180349349976,12.0807809829712,12.1441850662231,12.2082586288452,12.2730112075806,12.3250246047974,12.0419416427612,12.0509128570557,12.0598974227905,12.0688953399658,12.0779066085815,12.086932182312,12.0959701538086,12.1050214767456,12.1140871047974,12.1231660842896,12.1322593688965,12.1413650512695,12.1504850387573,12.1596183776855,12.1687660217285,12.1779270172119,12.1871004104614,12.1962871551514,12.2054882049561,12.2147026062012,12.223931312561,12.2331743240356,12.2424306869507,12.2517013549805,12.260986328125,12.27028465271,12.279598236084,12.2889261245728,12.2982692718506,12.3076267242432,12.3169975280762,12.3263835906982,12.3357839584351,12.3451986312866,12.3546276092529,12.364070892334,12.3735294342041,12.3830013275146,12.3924884796143,12.40198802948,12.4115028381348,12.4210319519043,12.4305753707886,12.4401340484619,12.44970703125,12.4592952728271,12.468897819519,12.478515625,12.48814868927,12.4977951049805,12.5074577331543,12.5171346664429,12.5268268585205,12.5365343093872,12.5462560653687,12.5559940338135,12.565746307373,12.5755138397217,12.5852966308594,12.5950946807861,12.604907989502,12.6147365570068,12.6245803833008,12.6344404220581,12.6443147659302,12.6542053222656,12.6641101837158,12.6740322113037,12.6839685440063,12.6939210891724,12.7038888931274,12.7138729095459,12.7238721847534,12.73388671875,12.74391746521,12.7539644241333,12.76402759552,12.7741050720215,12.7841997146606,12.7943105697632,12.8044366836548,12.8145790100098,12.8247375488281,12.8349123001099,12.8451023101807,12.8553094863892,12.865532875061,12.8757724761963,12.8860282897949,12.8963003158569,12.9065885543823,12.9168939590454,12.9272146224976,12.9375524520874,12.9479074478149,12.9582786560059,12.9686660766602,12.9790697097778,12.9894914627075,12.9999284744263,13.010383605957,13.0208549499512,13.031343460083,13.0418481826782,13.0523700714111,13.0629091262817,13.07346534729,13.084038734436,13.0946292877197,13.1052370071411,13.1158609390259,13.1265029907227,13.1371622085571,13.1478385925293,13.1585330963135,13.1692447662354,13.1799726486206,13.1907196044922,13.2014827728271,13.2122650146484,13.2230634689331,13.2338800430298,13.2447147369385,13.2555665969849,13.2664365768433,13.2773246765137,13.2882299423218,13.2991533279419,13.3100957870483,13.3210544586182,13.3320322036743,13.3430280685425,13.3540420532227,13.3625621795654,13.3709621429443,13.3793725967407,13.3877935409546,13.3962249755859,13.4046669006348,13.4131202697754,13.4215841293335,13.4300584793091,13.4385433197021,13.4470386505127,13.455545425415,13.4640626907349,13.4725904464722,13.4811296463013,13.4896793365479,13.4982395172119,13.5068111419678,13.5153932571411,13.5239868164062,13.5325908660889,13.541205406189,13.5498313903809,13.5584688186646,13.5671167373657,13.5869264602661,13.6181488037109,13.6495161056519,13.6810283660889,13.712685585022,13.7444896697998,13.776442527771,13.8085432052612,13.8407945632935,13.8731966018677,13.9057512283325,13.938458442688,13.9713201522827,14.004337310791,14.0375108718872,14.0708417892456,14.1043310165405,14.1379804611206,14.1717901229858,14.2057628631592,14.2398986816406,14.2741985321045,14.3086643218994,14.3432970046997,14.3780975341797,14.413067817688,14.4482078552246,14.4835205078125,14.5190057754517,14.5546646118164,14.5904998779297,14.6265125274658,14.6627025604248,14.6990718841553,14.7356224060059,14.7723560333252,14.809271812439,14.8463735580444,14.8836612701416,14.9211368560791,14.9588012695312,14.996657371521,15.034704208374,15.0729455947876,15.1113815307617,15.150013923645,15.1888446807861,15.2278747558594,15.2671070098877,15.3065404891968,15.3734321594238,15.4441175460815,15.515456199646,15.587456703186,0,0,0,0,0,0,0,0,0,0,0,0,0,0,0,0,0,0,0,0,0,0,0,0,0,0,0,0,0,0,0,0,0,0,0,0,0,0,0,0,0,0,0,0,0,0,0,0,0,0,0,0,0,0,0,0,0
11.570086479187,11.5699043273926,11.5697212219238,11.5695390701294,11.569356918335,11.5691738128662,11.5689916610718,11.5688095092773,11.5686264038086,11.5684442520142,11.5682611465454,11.568078994751,11.5678968429565,11.5677137374878,11.5675315856934,11.5673494338989,11.5671663284302,11.5669841766357,11.5668020248413,11.5666189193726,11.5664367675781,11.5662546157837,11.5660724639893,11.5658893585205,11.5657072067261,11.5655250549316,11.5653429031372,11.5651597976685,11.564977645874,11.5647954940796,11.5646133422852,11.5644302368164,11.564248085022,11.5640659332275,11.5638837814331,11.5637006759644,11.5635185241699,11.5633363723755,11.5631542205811,11.5629720687866,11.5627899169922,11.5626068115234,11.562424659729,11.5622425079346,11.5620603561401,11.5618782043457,11.5616960525513,11.5615139007568,11.5613307952881,11.5611486434937,11.5609664916992,11.5607843399048,11.5606021881104,11.5604200363159,11.5602378845215,11.5600557327271,11.5598735809326,11.5596914291382,11.5595083236694,11.559326171875,11.5591440200806,11.5589618682861,11.5587797164917,11.5585975646973,11.5584154129028,11.5582332611084,11.558051109314,11.5578689575195,11.5576868057251,11.5575046539307,11.5966548919678,11.6550607681274,11.7140588760376,11.7736577987671,11.8338651657104,11.8946924209595,11.956151008606,12.0182504653931,12.0809984207153,12.1444044113159,12.2084798812866,11.9897699356079,11.9986639022827,12.0075702667236,12.016489982605,12.0254240036011,12.0343704223633,12.0433301925659,12.052303314209,12.0612897872925,12.0702896118164,12.0793027877808,12.0883302688599,12.0973701477051,12.106424331665,12.1154918670654,12.1245727539062,12.1336679458618,12.1427755355835,12.1518983840942,12.1610336303711,12.1701831817627,12.179347038269,12.1885232925415,12.197714805603,12.206919670105,12.2161378860474,12.2253694534302,12.2346143722534,12.2438726425171,12.2531452178955,12.2624320983887,12.2717332839966,12.2810487747192,12.2903776168823,12.2997217178345,12.3090791702271,12.3184509277344,12.3278369903564,12.3372373580933,12.3466529846191,12.3560819625854,12.3655252456665,12.3749837875366,12.3844566345215,12.3939437866211,12.4034461975098,12.4129648208618,12.4224967956543,12.4320449829102,12.4416065216064,12.4511842727661,12.4607753753662,12.4703817367554,12.4800033569336,12.4896392822266,12.4992904663086,12.5089559555054,12.5186367034912,12.5283327102661,12.5380439758301,12.5477695465088,12.5575113296509,12.5672674179077,12.5770378112793,12.5868234634399,12.5966234207153,12.6064395904541,12.6162700653076,12.6261167526245,12.6359786987305,12.6458559036255,12.6557483673096,12.6656560897827,12.6755800247192,12.6855192184448,12.6954736709595,12.7054443359375,12.7154302597046,12.7254323959351,12.7354497909546,12.7454833984375,12.7555322647095,12.7655973434448,12.7756786346436,12.7857751846313,12.7958879470825,12.8060169219971,12.816162109375,12.826322555542,12.8365001678467,12.8466930389404,12.8569021224976,12.8671283721924,12.8773698806763,12.8876285552979,12.8979034423828,12.9081945419312,12.9185018539429,12.928825378418,12.9391660690308,12.9495229721069,12.9598970413208,12.970287322998,12.9806938171387,12.991117477417,13.0015573501587,13.0120153427124,13.0224885940552,13.03297996521,13.0434875488281,13.054012298584,13.0645542144775,13.0751132965088,13.0856885910034,13.0962820053101,13.1068925857544,13.1175193786621,13.1281642913818,13.1388263702393,13.1495056152344,13.1602020263672,13.1709156036377,13.1816473007202,13.1923961639404,13.2031631469727,13.2139472961426,13.2247486114502,13.2355680465698,13.2464056015015,13.2572603225708,13.2681331634521,13.2790231704712,13.2899322509766,13.3008584976196,13.3118028640747,13.3227653503418,13.3337459564209,13.344744682312,13.3557615280151,13.3667964935303,13.3778495788574,13.3889207839966,13.4000110626221,13.4090518951416,13.4175100326538,13.4259796142578,13.4344596862793,13.4429502487183,13.4514513015747,13.4599628448486,13.4684858322144,13.4770193099976,13.4855642318726,13.494119644165,13.502685546875,13.5112628936768,13.519850730896,13.5284490585327,13.5370597839355,13.5456800460815,13.5543117523193,13.5851593017578,13.6163749694824,13.6477336883545,13.6792364120483,13.7108860015869,13.7426824569702,13.7746257781982,13.8067188262939,13.8389616012573,13.8713550567627,13.9039011001587,13.9365997314453,13.9694519042969,14.0024604797363,14.0356245040894,14.0689468383789,14.102427482605,14.1360673904419,14.1698684692383,14.2038316726685,14.2379579544067,14.2722492218018,14.3067054748535,14.3413276672363,14.3761196136475,14.4110794067383,14.4462099075317,14.4815130233765,14.5169878005981,14.552638053894,14.5884628295898,14.6244649887085,14.66064453125,14.6970043182373,14.7335443496704,14.7702674865723,14.8071737289429,14.8442640304565,14.8815412521362,14.9190063476562,14.9566602706909,14.9945049285889,15.0325412750244,15.0707712173462,15.1091966629028,15.1478176116943,15.1866369247437,15.2256555557251,15.2648763656616,15.3042984008789,15.3439245223999,15.4058408737183,15.4768257141113,15.5484666824341,0,0,0,0,0,0,0,0,0,0,0,0,0,0,0,0,0,0,0,0,0,0,0,0,0,0,0,0,0,0,0,0,0,0,0,0,0,0,0,0,0,0,0,0,0,0,0,0,0,0,0,0,0,0,0,0
11.5700044631958,11.5698223114014,11.5696401596069,11.5694570541382,11.5692749023438,11.569091796875,11.5689096450806,11.5687274932861,11.5685443878174,11.5683622360229,11.5681800842285,11.5679969787598,11.5678148269653,11.5676326751709,11.5674495697021,11.5672674179077,11.5670852661133,11.5669021606445,11.5667200088501,11.5665378570557,11.5663547515869,11.5661725997925,11.565990447998,11.5658082962036,11.5656251907349,11.5654430389404,11.565260887146,11.5650787353516,11.5648956298828,11.5647134780884,11.5645313262939,11.5643491744995,11.5641660690308,11.5639839172363,11.5638017654419,11.5636196136475,11.563437461853,11.5632543563843,11.5630722045898,11.5628900527954,11.562707901001,11.5625257492065,11.5623435974121,11.5621604919434,11.5619783401489,11.5617961883545,11.5616140365601,11.5614318847656,11.5612497329712,11.5610675811768,11.5608854293823,11.5607023239136,11.5605201721191,11.5603380203247,11.5601558685303,11.5599737167358,11.5597915649414,11.559609413147,11.5594272613525,11.5592451095581,11.5590629577637,11.5588808059692,11.5586986541748,11.5585165023804,11.5583343505859,11.5581521987915,11.5579700469971,11.5577878952026,11.5576057434082,11.5574235916138,11.5968580245972,11.6552667617798,11.7142667770386,11.7738666534424,11.8340768814087,11.8949060440063,11.9563636779785,12.0184650421143,12.0812158584595,12.144624710083,11.9468650817871,11.9556951522827,11.9645385742188,11.9733943939209,11.9822635650635,11.9911460876465,12.0000419616699,12.0089502334595,12.0178718566895,12.0268077850342,12.035756111145,12.0447177886963,12.0536937713623,12.0626821517944,12.071683883667,12.0806999206543,12.0897283554077,12.0987710952759,12.1078271865845,12.1168966293335,12.1259794235229,12.1350765228271,12.1441869735718,12.1533117294312,12.1624488830566,12.1716012954712,12.1807661056519,12.1899452209473,12.1991386413574,12.208345413208,12.2175664901733,12.2268009185791,12.2360496520996,12.2453126907349,12.2545900344849,12.2638788223267,12.2731828689575,12.2824993133545,12.2918310165405,12.3011770248413,12.3105363845825,12.3199110031128,12.3292989730835,12.3387022018433,12.3481187820435,12.3575506210327,12.3669967651367,12.3764572143555,12.385931968689,12.3954210281372,12.4049253463745,12.4144439697266,12.4239768981934,12.4335241317749,12.4430866241455,12.4526643753052,12.4622564315796,12.4718627929688,12.481484413147,12.4911203384399,12.500771522522,12.5104379653931,12.5201215744019,12.5298194885254,12.539532661438,12.5492610931396,12.5590047836304,12.5687627792358,12.5785369873047,12.5883255004883,12.5981302261353,12.607949256897,12.6177845001221,12.6276340484619,12.6374998092651,12.6473808288574,12.6572771072388,12.6671886444092,12.677116394043,12.6870594024658,12.6970186233521,12.706992149353,12.7169828414917,12.7269878387451,12.7370100021362,12.7470474243164,12.7571001052856,12.7671680450439,12.7772512435913,12.7873506546021,12.7974662780762,12.8075971603394,12.8177452087402,12.8279085159302,12.8380880355835,12.8482837677002,12.8584957122803,12.8687238693237,12.8789682388306,12.8892297744751,12.8995065689087,12.9097995758057,12.9201097488403,12.9304370880127,12.9407796859741,12.9511394500732,12.9615154266357,12.9719085693359,12.9823179244995,12.9927444458008,13.0031871795654,13.0136470794678,13.0241231918335,13.0346174240112,13.0451278686523,13.0556545257568,13.0661993026733,13.0767602920532,13.0873394012451,13.0979347229004,13.1085481643677,13.1191778182983,13.129825592041,13.1404895782471,13.1511716842651,13.1618709564209,13.1725883483887,13.1833219528198,13.194073677063,13.2048435211182,13.2156295776367,13.2264347076416,13.2372570037842,13.2480964660645,13.2589540481567,13.269829750061,13.2807235717773,13.2916345596313,13.3025636672974,13.3135108947754,13.3244762420654,13.3354597091675,13.3464612960815,13.3574800491333,13.3685178756714,13.3795747756958,13.3906488418579,13.401741027832,13.4128522872925,13.4239816665649,13.4351301193237,13.4462966918945,13.4558668136597,13.4643840789795,13.4729127883911,13.4814519882202,13.4900016784668,13.4985628128052,13.507134437561,13.5157175064087,13.5243110656738,13.5329151153564,13.5523290634155,13.5833930969238,13.6146001815796,13.6459512710571,13.6774463653564,13.7090873718262,13.7408752441406,13.7728099822998,13.8048944473267,13.8371286392212,13.8695135116577,13.9020509719849,13.9347410202026,13.9675846099854,14.0005836486816,14.0337390899658,14.0670528411865,14.1005239486694,14.1341552734375,14.1679468154907,14.2019014358521,14.2360181808472,14.270299911499,14.3047466278076,14.3393602371216,14.3741416931152,14.4090919494629,14.4442129135132,14.4795055389404,14.5149717330933,14.5506105422974,14.58642578125,14.6224184036255,14.6585884094238,14.6949377059937,14.7314672470093,14.7681798934937,14.8050746917725,14.842155456543,14.8794221878052,14.9168767929077,14.9545192718506,14.9923534393311,15.0303792953491,15.0685977935791,15.1070117950439,15.145622253418,15.1844301223755,15.2234373092651,15.2626457214355,15.3020572662354,15.3416719436646,15.3814926147461,15.4383869171143,15.509672164917,15.581618309021,0,0,0,0,0,0,0,0,0,0,0,0,0,0,0,0,0,0,0,0,0,0,0,0,0,0,0,0,0,0,0,0,0,0,0,0,0,0,0,0,0,0,0,0,0,0,0,0,0,0,0,0,0,0
11.5699234008789,11.5697402954102,11.5695581436157,11.569375038147,11.5691928863525,11.5690107345581,11.5688276290894,11.5686454772949,11.5684633255005,11.5682802200317,11.5680980682373,11.5679159164429,11.5677328109741,11.5675506591797,11.5673685073853,11.5671854019165,11.5670032501221,11.5668210983276,11.5666379928589,11.5664558410645,11.56627368927,11.5660905838013,11.5659084320068,11.5657262802124,11.565544128418,11.5653610229492,11.5651788711548,11.5649967193604,11.5648145675659,11.5646314620972,11.5644493103027,11.5642671585083,11.5640850067139,11.5639019012451,11.5637197494507,11.5635375976562,11.5633554458618,11.5631732940674,11.5629911422729,11.5628080368042,11.5626258850098,11.5624437332153,11.5622615814209,11.5620794296265,11.561897277832,11.5617141723633,11.5615320205688,11.5613498687744,11.56116771698,11.5609855651855,11.5608034133911,11.5606212615967,11.5604391098022,11.5602569580078,11.5600738525391,11.5598917007446,11.5597095489502,11.5595273971558,11.5593452453613,11.5591630935669,11.5589809417725,11.558798789978,11.5586166381836,11.5584344863892,11.5582523345947,11.5580701828003,11.5578880310059,11.5577058792114,11.557523727417,11.5573415756226,11.5970611572266,11.6554718017578,11.7144737243652,11.774076461792,11.8342885971069,11.8951196670532,11.9565801620483,12.0186805725098,11.8955116271973,11.9042663574219,11.9130334854126,11.9218130111694,11.9306058883667,11.9394121170044,11.9482307434082,11.9570627212524,11.9659080505371,11.9747667312622,11.9836378097534,11.9925222396851,12.0014200210571,12.0103302001953,12.0192546844482,12.0281915664673,12.0371427536011,12.046106338501,12.0550842285156,12.0640745162964,12.0730791091919,12.0820960998535,12.0911273956299,12.1001720428467,12.1092300415039,12.1183013916016,12.127387046814,12.1364860534668,12.1455984115601,12.1547250747681,12.1638650894165,12.1730184555054,12.182186126709,12.1913681030273,12.2005624771118,12.2097721099854,12.2189950942993,12.228232383728,12.2374830245972,12.2467479705811,12.2560272216797,12.2653198242188,12.2746267318726,12.2839488983154,12.2932834625244,12.3026323318481,12.3119945526123,12.3213710784912,12.3307619094849,12.3401670455933,12.3495864868164,12.3590202331543,12.3684682846069,12.3779306411743,12.3874082565308,12.3968992233276,12.4064054489136,12.4159259796143,12.425461769104,12.4350118637085,12.4445762634277,12.454155921936,12.4637498855591,12.4733591079712,12.4829835891724,12.492621421814,12.5022754669189,12.5119438171387,12.5216274261475,12.5313262939453,12.5410394668579,12.5507678985596,12.5605115890503,12.5702705383301,12.5800447463989,12.5898342132568,12.5996389389038,12.6094579696655,12.6192932128906,12.6291446685791,12.639012336731,12.6488952636719,12.6587944030762,12.6687088012695,12.678638458252,12.6885843276978,12.6985454559326,12.7085218429565,12.7185144424438,12.7285223007202,12.73854637146,12.7485857009888,12.758641242981,12.7687129974365,12.7788000106812,12.7889032363892,12.7990226745605,12.809157371521,12.8193092346191,12.8294763565063,12.8396596908569,12.8498601913452,12.8600759506226,12.8703079223633,12.8805561065674,12.8908214569092,12.90110206604,12.9113998413086,12.9217138290405,12.9320449829102,12.9423923492432,12.9527559280396,12.963134765625,12.9735298156738,12.9839420318604,12.9943714141846,13.0048170089722,13.0152788162231,13.0257587432861,13.0362548828125,13.0467681884766,13.057297706604,13.0678443908691,13.0784091949463,13.0889902114868,13.099588394165,13.110203742981,13.1208372116089,13.1314868927002,13.1421537399292,13.1528387069702,13.1635408401489,13.1742601394653,13.1849975585938,13.1957521438599,13.2065238952637,13.2173137664795,13.228120803833,13.2389459609985,13.2497882843018,13.260648727417,13.2715272903442,13.2824230194092,13.2933368682861,13.3042688369751,13.3152189254761,13.3261871337891,13.3371734619141,13.3481779098511,13.3592004776001,13.3702411651611,13.3812999725342,13.3923768997192,13.4034729003906,13.4145860671997,13.4257183074951,13.4368696212769,13.4480390548706,13.4688081741333,13.4773416519165,13.4858865737915,13.4944429397583,13.5030088424683,13.51158618927,13.5201749801636,13.5505714416504,13.5816278457642,13.6128263473511,13.6441688537598,13.6756553649902,13.7072887420654,13.739068031311,13.7709951400757,13.8030710220337,13.8352966308594,13.8676729202271,13.900200843811,13.93288230896,13.9657173156738,13.9987077713013,14.0318546295166,14.0651588439941,14.0986213684082,14.1322431564331,14.1660261154175,14.1999711990356,14.2340784072876,14.2683506011963,14.3027877807617,14.3373918533325,14.372163772583,14.4071054458618,14.4422168731689,14.4774990081787,14.5129547119141,14.5485849380493,14.5843896865845,14.6203718185425,14.6565313339233,14.69287109375,14.7293901443481,14.766092300415,14.8029775619507,14.8400478363037,14.8773031234741,14.9147472381592,14.9523792266846,14.9902019500732,15.0282173156738,15.0664253234863,15.1048278808594,15.1434268951416,15.1822233200073,15.2212200164795,15.2604169845581,15.2998161315918,15.3394193649292,15.3792285919189,15.4192447662354,15.4710702896118,15.5426588058472,0,0,0,0,0,0,0,0,0,0,0,0,0,0,0,0,0,0,0,0,0,0,0,0,0,0,0,0,0,0,0,0,0,0,0,0,0,0,0,0,0,0,0,0,0,0,0,0,0,0,0,0,0
11.5698413848877,11.5696582794189,11.5694761276245,11.5692939758301,11.5691108703613,11.5689287185669,11.5687465667725,11.5685634613037,11.5683813095093,11.5681982040405,11.5680160522461,11.5678339004517,11.5676507949829,11.5674686431885,11.567286491394,11.5671033859253,11.5669212341309,11.5667390823364,11.566556930542,11.5663738250732,11.5661916732788,11.5660095214844,11.5658264160156,11.5656442642212,11.5654621124268,11.5652799606323,11.5650968551636,11.5649147033691,11.5647325515747,11.5645503997803,11.5643672943115,11.5641851425171,11.5640029907227,11.5638208389282,11.5636386871338,11.563455581665,11.5632734298706,11.5630912780762,11.5629091262817,11.5627269744873,11.5625438690186,11.5623617172241,11.5621795654297,11.5619974136353,11.5618152618408,11.5616331100464,11.561450958252,11.5612688064575,11.5610857009888,11.5609035491943,11.5607213973999,11.5605392456055,11.560357093811,11.5601749420166,11.5599927902222,11.5598106384277,11.5596284866333,11.5594463348389,11.5592641830444,11.55908203125,11.5588989257812,11.5587167739868,11.5585346221924,11.5583524703979,11.5581703186035,11.5579881668091,11.5578060150146,11.5576238632202,11.5574417114258,11.5572595596313,11.597264289856,11.6556777954102,11.7146816253662,11.7742862701416,11.8345003128052,11.8953342437744,11.9567956924438,11.8532781600952,11.8619699478149,11.8706750869751,11.8793926239014,11.8881225585938,11.8968658447266,11.9056224822998,11.9143915176392,11.9231739044189,11.9319686889648,11.9407768249512,11.9495973587036,11.9584312438965,11.9672784805298,11.9761390686035,11.9850120544434,11.9938983917236,12.0027980804443,12.0117111206055,12.020637512207,12.0295763015747,12.0385293960571,12.0474948883057,12.0564746856689,12.0654678344727,12.0744733810425,12.0834932327271,12.0925264358521,12.1015729904175,12.1106338500977,12.1197071075439,12.128794670105,12.1378955841064,12.1470108032227,12.156138420105,12.1652812957764,12.1744365692139,12.1836071014404,12.1927900314331,12.2019872665405,12.2111988067627,12.2204236984253,12.2296628952026,12.2389163970947,12.2481832504272,12.2574644088745,12.2667598724365,12.276068687439,12.2853927612305,12.2947301864624,12.3040819168091,12.3134479522705,12.3228282928467,12.3322229385376,12.3416318893433,12.351053237915,12.3604898452759,12.3699398040771,12.3794050216675,12.3888845443726,12.3983783721924,12.407886505127,12.4174098968506,12.426947593689,12.4364995956421,12.4460668563843,12.4556484222412,12.4652452468872,12.4748563766479,12.4844827651978,12.4941234588623,12.5037794113159,12.5134506225586,12.523136138916,12.5328369140625,12.542552947998,12.5522832870483,12.562029838562,12.5717906951904,12.5815677642822,12.5913591384888,12.6011657714844,12.610987663269,12.6208257675171,12.6306781768799,12.6405467987061,12.6504306793213,12.6603298187256,12.6702442169189,12.6801738739014,12.6901197433472,12.7000818252563,12.7100582122803,12.7200508117676,12.7300596237183,12.740083694458,12.7501249313354,12.7601823806763,12.7702569961548,12.780345916748,12.790452003479,12.800573348999,12.8107118606567,12.8208656311035,12.8310346603394,12.8412208557129,12.8514232635498,12.8616418838501,12.8718767166138,12.8821277618408,12.8923950195312,12.9026784896851,12.9129791259766,12.9232950210571,12.9336290359497,12.9439783096313,12.9543447494507,12.9647274017334,12.9751272201538,12.9855432510376,12.9959764480591,13.0064258575439,13.0168924331665,13.0273752212524,13.0378761291504,13.0483932495117,13.0589275360107,13.0694780349731,13.0800466537476,13.0906324386597,13.1012344360352,13.1118545532227,13.1224918365479,13.1331462860107,13.143816947937,13.1545066833496,13.165210723877,13.1759328842163,13.1866731643677,13.1974296569824,13.2082052230835,13.2189970016479,13.2298069000244,13.2406349182129,13.2514801025391,13.2623434066772,13.2732248306274,13.2841234207153,13.2950401306152,13.3059749603271,13.3169279098511,13.327898979187,13.338888168335,13.3498954772949,13.3609199523926,13.3719635009766,13.3830251693726,13.3941059112549,13.4052038192749,13.4163208007812,13.4274559020996,13.4386100769043,13.4732341766357,13.4817743301392,13.4903249740601,13.4988861083984,13.5179080963135,13.5488147735596,13.5798625946045,13.6110534667969,13.6423873901367,13.6738662719727,13.7054901123047,13.7372617721558,13.7691802978516,13.8012475967407,13.8334646224976,13.8658323287964,13.8983516693115,13.9310245513916,13.9638509750366,13.9968328475952,14.0299701690674,14.0632658004761,14.096718788147,14.130331993103,14.1641054153442,14.1980409622192,14.2321395874023,14.2664022445679,14.3008308410645,14.3354253768921,14.3701877593994,14.4051189422607,14.4402208328247,14.4754934310913,14.5109395980835,14.5465593338013,14.5823545455933,14.6183261871338,14.6544761657715,14.6908054351807,14.7273139953613,14.7640056610107,14.8008804321289,14.8379402160645,14.8751850128174,14.9126176834106,14.9502401351929,14.9880514144897,15.0260553359985,15.0642528533936,15.1026449203491,15.1412324905396,15.1800174713135,15.2190027236938,15.2581882476807,15.2975759506226,15.3371677398682,15.3769655227661,15.4169692993164,15.457181930542,15.5038928985596,15.5757856369019,17.2409534454346,0,0,0,0,0,0,0,0,0,0,0,0,0,0,0,0,0,0,0,0,0,0,0,0,0,0,0,0,0,0,0,0,0,0,0,0,0,0,0,0,0,0,0,0,0,0,0,0,0,0
11.5697593688965,11.5695772171021,11.5693941116333,11.5692119598389,11.5690288543701,11.5688467025757,11.5686645507812,11.5684814453125,11.5682992935181,11.5681171417236,11.5679340362549,11.5677518844604,11.567569732666,11.5673866271973,11.5672044754028,11.5670223236084,11.5668392181396,11.5666570663452,11.5664749145508,11.566291809082,11.5661096572876,11.5659275054932,11.5657453536987,11.56556224823,11.5653800964355,11.5651979446411,11.5650157928467,11.5648326873779,11.5646505355835,11.5644683837891,11.5642862319946,11.5641031265259,11.5639209747314,11.563738822937,11.5635566711426,11.5633745193481,11.5631914138794,11.563009262085,11.5628271102905,11.5626449584961,11.5624628067017,11.5622806549072,11.5620975494385,11.561915397644,11.5617332458496,11.5615510940552,11.5613689422607,11.5611867904663,11.5610046386719,11.5608224868774,11.560640335083,11.5604572296143,11.5602750778198,11.5600929260254,11.559910774231,11.5597286224365,11.5595464706421,11.5593643188477,11.5591821670532,11.5590000152588,11.5588178634644,11.5586357116699,11.5584535598755,11.5582714080811,11.5580892562866,11.5579071044922,11.5577249526978,11.5575428009033,11.5573606491089,11.5571784973145,11.5974683761597,11.6558828353882,11.7148895263672,11.7744960784912,11.8347120285034,11.8027248382568,11.8113422393799,11.8199729919434,11.8286161422729,11.837272644043,11.8459415435791,11.8546228408813,11.8633165359497,11.8720235824585,11.8807430267334,11.8894758224487,11.8982210159302,11.9069786071777,11.91575050354,11.9245338439941,11.933331489563,11.9421415328979,11.950963973999,11.9597997665405,11.9686489105225,11.9775114059448,11.9863872528076,11.9952754974365,12.0041770935059,12.0130920410156,12.0220203399658,12.0309619903564,12.0399160385132,12.0488843917847,12.0578660964966,12.0668611526489,12.0758686065674,12.0848903656006,12.0939264297485,12.1029748916626,12.1120376586914,12.1211128234863,12.130202293396,12.1393060684204,12.1484222412109,12.1575527191162,12.1666975021362,12.1758556365967,12.1850271224976,12.1942129135132,12.2034120559692,12.21262550354,12.2218532562256,12.2310943603516,12.2403497695923,12.2496194839478,12.2589025497437,12.2681999206543,12.2775115966797,12.2868375778198,12.2961769104004,12.30553150177,12.3148994445801,12.3242816925049,12.3336791992188,12.343090057373,12.3525161743164,12.3619556427002,12.371410369873,12.3808794021606,12.3903608322144,12.3998565673828,12.4093675613403,12.4188928604126,12.4284334182739,12.4379873275757,12.4475564956665,12.4571409225464,12.466739654541,12.4763536453247,12.4859819412231,12.4956254959106,12.5052833557129,12.5149564743042,12.5246448516846,12.534348487854,12.5440664291382,12.5537996292114,12.5635480880737,12.5733118057251,12.5830907821655,12.5928840637207,12.6026935577393,12.6125183105469,12.6223583221436,12.6322135925293,12.6420841217041,12.651969909668,12.6618719100952,12.6717882156372,12.6817207336426,12.6916694641113,12.7016334533691,12.711612701416,12.7216081619263,12.7316188812256,12.7416458129883,12.75168800354,12.7617464065552,12.7718200683594,12.7819108963013,12.7920160293579,12.8021383285522,12.81227684021,12.8224306106567,12.8326005935669,12.8427877426147,12.8529901504517,12.863208770752,12.8734455108643,12.8836994171143,12.8939685821533,12.9042549133301,12.9145574569702,12.924877166748,12.9352130889893,12.9455652236938,12.9559335708618,12.9663190841675,12.9767208099365,12.9871397018433,12.9975757598877,13.0080280303955,13.0184965133667,13.0289831161499,13.0394859313965,13.0500059127808,13.0605421066284,13.0710964202881,13.0816669464111,13.0922555923462,13.1028604507446,13.1134824752808,13.1241226196289,13.1347789764404,13.145453453064,13.1561450958252,13.1668539047241,13.1775808334351,13.1883239746094,13.19908618927,13.209864616394,13.2206611633301,13.2314758300781,13.2423076629639,13.2531576156616,13.2640247344971,13.2749109268188,13.2858142852783,13.2967348098755,13.307674407959,13.3186311721802,13.3296070098877,13.3406000137329,13.3516111373901,13.3626403808594,13.3736867904663,13.3847522735596,13.3958349227905,13.4069356918335,13.4180555343628,13.4291934967041,13.4776639938354,13.4862098693848,13.5161590576172,13.5470581054688,13.5780973434448,13.6092805862427,13.6406059265137,13.6720771789551,13.7036924362183,13.7354555130005,13.7673654556274,13.7994251251221,13.8316335678101,13.86399269104,13.8965034484863,13.9291677474976,13.9619855880737,13.9949579238892,14.0280866622925,14.061372756958,14.0948171615601,14.1284208297729,14.1621856689453,14.1961116790771,14.2302017211914,14.2644548416138,14.2988729476929,14.3334589004517,14.3682117462158,14.403133392334,14.4382247924805,14.4734888076782,14.5089244842529,14.5445346832275,14.5803194046021,14.6162815093994,14.6524209976196,14.6887397766113,14.7252388000488,14.7619199752808,14.7987842559814,14.8358325958252,14.873067855835,14.9104900360107,14.9481010437012,14.9859018325806,15.0238952636719,15.0620813369751,15.1004619598389,15.1390380859375,15.1778125762939,15.2167863845825,15.2559604644775,15.2953367233276,15.3349170684814,15.3747024536133,15.4146947860718,15.4548959732056,15.495306968689,15.5368547439575,16.302713394165,17.0128517150879,0,0,0,0,0,0,0,0,0,0,0,0,0,0,0,0,0,0,0,0,0,0,0,0,0,0,0,0,0,0,0,0,0,0,0,0,0,0,0,0,0,0,0,0,0,0,0,0
11.5696773529053,11.5694952011108,11.5693120956421,11.5691299438477,11.5689477920532,11.5687646865845,11.56858253479,11.5684003829956,11.5682172775269,11.5680351257324,11.567852973938,11.5676698684692,11.5674877166748,11.5673055648804,11.5671224594116,11.5669403076172,11.5667581558228,11.566575050354,11.5663928985596,11.5662107467651,11.5660276412964,11.565845489502,11.5656633377075,11.5654811859131,11.5652980804443,11.5651159286499,11.5649337768555,11.564751625061,11.5645685195923,11.5643863677979,11.5642042160034,11.564022064209,11.5638399124146,11.5636568069458,11.5634746551514,11.5632925033569,11.5631103515625,11.5629281997681,11.5627450942993,11.5625629425049,11.5623807907104,11.562198638916,11.5620164871216,11.5618343353271,11.5616521835327,11.561469078064,11.5612869262695,11.5611047744751,11.5609226226807,11.5607404708862,11.5605583190918,11.5603761672974,11.5601940155029,11.5600118637085,11.5598297119141,11.5596466064453,11.5594644546509,11.5592823028564,11.559100151062,11.5589179992676,11.5587358474731,11.5585536956787,11.5583715438843,11.5581893920898,11.5580072402954,11.557825088501,11.5576429367065,11.5574607849121,11.5572786331177,11.5570964813232,11.5976715087891,11.6560878753662,11.7150964736938,11.7747058868408,11.7611455917358,11.769702911377,11.7782726287842,11.7868547439575,11.7954502105713,11.8040580749512,11.8126773834229,11.821310043335,11.8299560546875,11.8386135101318,11.8472843170166,11.8559675216675,11.8646631240845,11.8733720779419,11.8820943832397,11.8908281326294,11.8995761871338,11.90833568573,11.9171094894409,11.9258947372437,11.9346942901611,11.9435062408447,11.9523305892944,11.9611692428589,11.9700202941895,11.9788846969604,11.9877614974976,11.9966526031494,12.0055561065674,12.0144729614258,12.0234031677246,12.0323467254639,12.0413036346436,12.0502738952637,12.0592575073242,12.0682544708252,12.0772647857666,12.0862884521484,12.0953254699707,12.1043767929077,12.1134414672852,12.122519493103,12.1316108703613,12.1407165527344,12.1498346328735,12.1589679718018,12.1681137084961,12.1772747039795,12.186448097229,12.1956357955933,12.2048377990723,12.2140531539917,12.2232828140259,12.2325267791748,12.2417840957642,12.2510547637939,12.2603406906128,12.2696399688721,12.2789545059204,12.2882823944092,12.2976236343384,12.3069801330566,12.3163509368896,12.3257360458374,12.3351345062256,12.3445482254028,12.3539762496948,12.3634185791016,12.372875213623,12.3823461532593,12.3918323516846,12.4013319015503,12.4108467102051,12.4203767776489,12.4299192428589,12.4394760131836,12.4490480422974,12.4586343765259,12.4682350158691,12.4778509140015,12.4874820709229,12.497127532959,12.5067882537842,12.5164632797241,12.5261545181274,12.5358600616455,12.5455799102783,12.5553159713745,12.5650663375854,12.5748329162598,12.5846138000488,12.594409942627,12.6042213439941,12.6140489578247,12.62389087677,12.6337490081787,12.6436214447021,12.653510093689,12.6634140014648,12.6733331680298,12.6832685470581,12.6932191848755,12.7031850814819,12.7131671905518,12.7231645584106,12.7331781387329,12.7432069778442,12.7532520294189,12.763313293457,12.7733898162842,12.7834825515747,12.7935905456543,12.8037157058716,12.8138561248779,12.8240127563477,12.8341856002808,12.8443746566772,12.8545789718628,12.864800453186,12.8750381469727,12.8852920532227,12.8955631256104,12.9058494567871,12.9161520004272,12.9264717102051,12.9368076324463,12.9471607208252,12.9575300216675,12.9679155349731,12.9783182144165,12.9887371063232,12.9991750717163,13.0096302032471,13.0201015472412,13.030590057373,13.0410957336426,13.0516185760498,13.0621576309204,13.0727138519287,13.0832872390747,13.0938787460327,13.1044864654541,13.1151113510132,13.12575340271,13.1364126205444,13.1470899581909,13.1577844619751,13.168496131897,13.1792249679565,13.1899709701538,13.2007360458374,13.2115173339844,13.2223167419434,13.23313331604,13.243968963623,13.2548208236694,13.2656917572021,13.2765798568726,13.2874851226807,13.2984094619751,13.3093509674072,13.3203115463257,13.3312892913818,13.34228515625,13.3533000946045,13.3643321990967,13.3753833770752,13.3864517211914,13.3975391387939,13.4650278091431,13.4836616516113,13.5144109725952,13.5453014373779,13.5763330459595,13.6075077056885,13.6388254165649,13.6702880859375,13.7018957138062,13.7336502075195,13.7655515670776,13.7976026535034,13.8298025131226,13.8621530532837,13.8946552276611,13.9273109436035,13.9601192474365,13.9930839538574,14.0262031555176,14.0594806671143,14.0929164886475,14.1265106201172,14.1602668762207,14.1941833496094,14.2282638549805,14.2625074386597,14.2969169616699,14.3314924240112,14.3662357330322,14.4011478424072,14.4362297058105,14.4714832305908,14.5069103240967,14.5425100326538,14.5782852172852,14.614236831665,14.6503658294678,14.6866750717163,14.7231636047363,14.7598342895508,14.796688079834,14.8337268829346,14.8709506988525,14.9083623886108,14.9459629058838,14.9837532043457,15.0217351913452,15.0599098205566,15.0982799530029,15.1368446350098,15.1756076812744,15.2145700454712,15.2537326812744,15.2930974960327,15.3326663970947,15.3724403381348,15.4124212265015,15.4526100158691,15.4930095672607,15.5336208343506,15.5626020431519,16.0986137390137,16.7907066345215,0,0,0,0,0,0,0,0,0,0,0,0,0,0,0,0,0,0,0,0,0,0,0,0,0,0,0,0,0,0,0,0,0,0,0,0,0,0,0,0,0,0,0,0,0,0
11.5695953369141,11.5694131851196,11.5692310333252,11.5690479278564,11.568865776062,11.5686836242676,11.5685005187988,11.5683183670044,11.5681352615356,11.5679531097412,11.5677709579468,11.567587852478,11.5674057006836,11.5672235488892,11.5670404434204,11.566858291626,11.5666761398315,11.5664939880371,11.5663108825684,11.5661287307739,11.5659465789795,11.5657634735107,11.5655813217163,11.5653991699219,11.5652170181274,11.5650339126587,11.5648517608643,11.5646696090698,11.5644874572754,11.5643043518066,11.5641222000122,11.5639400482178,11.5637578964233,11.5635757446289,11.5633926391602,11.5632104873657,11.5630283355713,11.5628461837769,11.5626640319824,11.562481880188,11.5622987747192,11.5621166229248,11.5619344711304,11.5617523193359,11.5615701675415,11.5613880157471,11.5612058639526,11.5610237121582,11.5608406066895,11.560658454895,11.5604763031006,11.5602941513062,11.5601119995117,11.5599298477173,11.5597476959229,11.5595655441284,11.559383392334,11.5592012405396,11.5590190887451,11.5588369369507,11.5586547851562,11.5584726333618,11.5582904815674,11.5581083297729,11.5579261779785,11.5577440261841,11.5575618743896,11.5573797225952,11.5571975708008,11.5570154190063,11.5978746414185,11.6562938690186,11.7113733291626,11.7198581695557,11.7283554077148,11.7368650436401,11.7453880310059,11.7539224624634,11.762469291687,11.7710285186768,11.7796001434326,11.7881851196289,11.796781539917,11.8053913116455,11.8140134811401,11.8226480484009,11.8312950134277,11.839955329895,11.8486270904541,11.8573131561279,11.8660106658936,11.8747215270996,11.8834447860718,11.8921813964844,11.9009313583374,11.9096927642822,11.9184684753418,11.9272565841675,11.9360570907593,11.9448709487915,11.9536981582642,11.9625387191772,11.9713916778564,11.9802579879761,11.9891376495361,11.9980297088623,12.0069351196289,12.0158548355103,12.0247869491577,12.0337324142456,12.0426912307739,12.0516633987427,12.0606489181519,12.0696477890015,12.0786609649658,12.0876865386963,12.0967264175415,12.1057786941528,12.1148452758789,12.1239261627197,12.1330194473267,12.1421270370483,12.1512479782104,12.160382270813,12.1695308685303,12.1786937713623,12.1878700256348,12.1970596313477,12.2062635421753,12.2154808044434,12.2247123718262,12.2339582443237,12.243218421936,12.2524919509888,12.2617797851562,12.2710809707642,12.2803974151611,12.2897272109985,12.2990713119507,12.3084297180176,12.3178024291992,12.3271894454956,12.3365907669067,12.3460063934326,12.3554363250732,12.3648815155029,12.374340057373,12.3838138580322,12.3933019638062,12.4028043746948,12.4123210906982,12.4218530654907,12.4313993453979,12.4409599304199,12.450535774231,12.4601259231567,12.4697303771973,12.4793491363525,12.4889822006226,12.4986305236816,12.5082931518555,12.5179710388184,12.527663230896,12.537371635437,12.5470943450928,12.5568323135376,12.5665855407715,12.5763540267944,12.5861377716064,12.5959358215332,12.6057500839233,12.6155796051025,12.6254243850708,12.6352844238281,12.6451597213745,12.65505027771,12.6649570465088,12.6748790740967,12.6848163604736,12.6947689056396,12.704737663269,12.7147226333618,12.7247219085693,12.7347383499146,12.7447700500488,12.7548170089722,12.7648801803589,12.774959564209,12.7850542068481,12.7951650619507,12.8052930831909,12.8154354095459,12.8255949020386,12.8357706069946,12.8459615707397,12.8561697006226,12.8663930892944,12.876633644104,12.8868894577026,12.897162437439,12.9074516296387,12.9177570343018,12.9280796051025,12.9384183883667,12.9487733840942,12.9591445922852,12.9695329666138,12.9799385070801,12.9903602600098,13.0007991790771,13.0112543106079,13.0217256546021,13.0322151184082,13.0427207946777,13.053243637085,13.0637836456299,13.0743408203125,13.0849142074585,13.0955057144165,13.1061134338379,13.1167402267456,13.1273851394653,13.1380472183228,13.1487264633179,13.159423828125,13.1701383590698,13.1808700561523,13.1916189193726,13.2023859024048,13.2131700515747,13.2239723205566,13.2347917556763,13.2456293106079,13.2564849853516,13.2673578262329,13.2782487869263,13.2891578674316,13.3000841140747,13.3110284805298,13.3219919204712,13.3329725265503,13.3439712524414,13.3549880981445,13.4439115524292,13.4524145126343,13.4819211959839,13.5126628875732,13.5435457229614,13.5745697021484,13.6057357788086,13.6370449066162,13.6684999465942,13.700098991394,13.7318449020386,13.7637386322021,13.7957801818848,13.8279724121094,13.8603143692017,13.8928079605103,13.9254541397095,13.9582548141479,13.9912099838257,14.024320602417,14.0575895309448,14.0910158157349,14.1246013641357,14.1583471298218,14.1922550201416,14.2263259887695,14.2605609893799,14.294960975647,14.3295269012451,14.3642606735229,14.3991632461548,14.4342355728149,14.4694795608521,14.5048961639404,14.5404863357544,14.5762510299683,14.612193107605,14.6483125686646,14.6846103668213,14.7210893630981,14.7577495574951,14.7945928573608,14.8316211700439,14.8688344955444,14.9062356948853,14.9438247680664,14.9816045761108,15.0195751190186,15.0577392578125,15.096097946167,15.1346521377563,15.1734046936035,15.2123546600342,15.2515058517456,15.2908592224121,15.3304166793823,15.3701782226562,15.4101476669312,15.44846534729,15.4714660644531,15.4945344924927,15.5176734924316,15.5493602752686,15.8995628356934,16.5742874145508,17.3088150024414,0,0,0,0,0,0,0,0,0,0,0,0,0,0,0,0,0,0,0,0,0,0,0,0,0,0,0,0,0,0,0,0,0,0,0,0,0,0,0,0,0,0,0
11.5695142745972,11.5693311691284,11.569149017334,11.5689668655396,11.5687837600708,11.5686016082764,11.5684185028076,11.5682363510132,11.5680541992188,11.56787109375,11.5676889419556,11.5675067901611,11.5673236846924,11.5671415328979,11.5669593811035,11.5667762756348,11.5665941238403,11.5664119720459,11.5662298202515,11.5660467147827,11.5658645629883,11.5656824111938,11.5654993057251,11.5653171539307,11.5651350021362,11.5649528503418,11.564769744873,11.5645875930786,11.5644054412842,11.5642232894897,11.5640411376953,11.5638580322266,11.5636758804321,11.5634937286377,11.5633115768433,11.5631294250488,11.5629463195801,11.5627641677856,11.5625820159912,11.5623998641968,11.5622177124023,11.5620355606079,11.5618524551392,11.5616703033447,11.5614881515503,11.5613059997559,11.5611238479614,11.560941696167,11.5607595443726,11.5605773925781,11.5603952407837,11.5602121353149,11.5600299835205,11.5598478317261,11.5596656799316,11.5594835281372,11.5593013763428,11.5591192245483,11.5589370727539,11.5587549209595,11.558572769165,11.5583906173706,11.5582084655762,11.5580263137817,11.5578441619873,11.5576620101929,11.5574798583984,11.557297706604,11.5571155548096,11.5569334030151,11.5980777740479,11.6564989089966,11.6788597106934,11.6872978210449,11.6957483291626,11.7042112350464,11.712685585022,11.721173286438,11.7296724319458,11.7381839752197,11.7467079162598,11.7552442550659,11.7637929916382,11.7723550796509,11.7809286117554,11.789514541626,11.798113822937,11.8067245483398,11.8153486251831,11.8239850997925,11.8326349258423,11.8412961959839,11.8499708175659,11.8586587905884,11.8673582077026,11.8760709762573,11.8847970962524,11.8935356140137,11.902286529541,11.9110507965088,11.9198274612427,11.928617477417,11.9374208450317,11.9462366104126,11.9550657272339,11.9639081954956,11.9727630615234,11.9816312789917,11.9905128479004,11.9994077682495,12.0083150863647,12.0172367095947,12.0261707305908,12.0351181030273,12.0440797805786,12.053053855896,12.0620412826538,12.0710420608521,12.080057144165,12.0890846252441,12.098126411438,12.1071815490723,12.116250038147,12.1253328323364,12.134428024292,12.1435375213623,12.1526613235474,12.1617975234985,12.1709489822388,12.1801128387451,12.1892910003662,12.1984834671021,12.2076892852783,12.2169094085693,12.2261428833008,12.235390663147,12.2446527481079,12.2539281845093,12.2632179260254,12.2725219726562,12.2818403244019,12.2911729812622,12.300518989563,12.3098802566528,12.3192548751831,12.3286437988281,12.3380479812622,12.3474655151367,12.356897354126,12.3663444519043,12.3758058547974,12.3852815628052,12.3947715759277,12.404275894165,12.4137954711914,12.4233293533325,12.4328784942627,12.4424419403076,12.4520196914673,12.461612701416,12.4712200164795,12.480842590332,12.4904794692993,12.5001316070557,12.5097980499268,12.5194787979126,12.5291738510132,12.5388841629028,12.5486087799072,12.558349609375,12.5681047439575,12.5778760910034,12.5876617431641,12.5974626541138,12.6072788238525,12.6171102523804,12.6269578933716,12.6368198394775,12.6466979980469,12.6565914154053,12.6665000915527,12.6764240264893,12.6863641738892,12.6963195800781,12.7062911987305,12.7162780761719,12.7262802124023,12.7362985610962,12.7463321685791,12.7563819885254,12.7664480209351,12.7765293121338,12.7866268157959,12.7967405319214,12.8068704605103,12.8170156478882,12.8271770477295,12.8373556137085,12.8475494384766,12.857759475708,12.8679857254028,12.878228187561,12.8884878158569,12.8987627029419,12.9090547561646,12.9193630218506,12.9296875,12.9400291442871,12.9503860473633,12.9607610702515,12.9711513519287,12.981559753418,12.9919834136963,13.0024251937866,13.0128831863403,13.0233573913574,13.0338487625122,13.0443572998047,13.0548830032349,13.0654258728027,13.075984954834,13.0865621566772,13.0971555709839,13.1077661514282,13.1183948516846,13.1290397644043,13.139702796936,13.1503829956055,13.1610803604126,13.1717948913574,13.1825275421143,13.1932764053345,13.204044342041,13.2148294448853,13.2256317138672,13.2364521026611,13.2472915649414,13.2581491470337,13.269024848938,13.2799186706543,13.2908296585083,13.3017597198486,13.3127069473267,13.3236722946167,13.4313383102417,13.4495878219604,13.4801816940308,13.5109157562256,13.5417900085449,13.5728063583374,13.6039638519287,13.6352653503418,13.666711807251,13.6983032226562,13.7300405502319,13.7619256973267,13.7939596176147,13.8261423110962,13.8584756851196,13.8909606933594,13.9235982894897,13.9563903808594,13.9893360137939,14.0224390029907,14.0556983947754,14.0891151428223,14.1226921081543,14.1564292907715,14.1903276443481,14.2243890762329,14.2586145401001,14.293004989624,14.327561378479,14.3622856140137,14.3971786499023,14.4322414398193,14.4674758911133,14.5028829574585,14.538462638855,14.5742177963257,14.6101493835449,14.6462593078613,14.6825475692749,14.71901512146,14.7556657791138,14.792498588562,14.8295154571533,14.8667192459106,14.9041090011597,14.9416875839233,14.9794569015503,15.0174169540405,15.0555696487427,15.0939168930054,15.1324605941772,15.1712007522583,15.2101402282715,15.2492799758911,15.2886219024658,15.3281679153442,15.3594303131104,15.3821668624878,15.4049701690674,15.4278411865234,15.4507808685303,15.4737882614136,15.5024785995483,15.5361404418945,15.6817455291748,16.3633766174316,17.0789260864258,19.7695960998535,19.8451461791992,19.9212779998779,0,0,0,0,0,0,0,0,0,0,0,0,0,0,0,0,0,0,0,0,0,0,0,0,0,0,0,0,0,0,0,0,0,0,0,0,0,0
