9.5935697555542,9.593825340271,9.59408187866211,9.59433841705322,9.59459400177002,9.59485054016113,9.59510707855225,9.59536266326904,9.59561920166016,9.59587574005127,9.00109004974365,8.97955703735352,8.95812702178955,8.95163726806641,8.94758319854736,8.94353294372559,8.93948650360107,8.93544387817383,8.93484306335449,8.93760871887207,8.94059467315674,8.94358253479004,8.94657230377197,8.94956398010254,8.95255756378174,8.9589900970459,8.96754360198975,8.97611331939697,8.98469924926758,8.99330234527588,9.00192165374756,9.01055717468262,9.02210521697998,9.03803634643555,9.05401992797852,9.07005977630615,9.08615684509277,9.10231113433838,9.12226104736328,9.15890979766846,9.19587421417236,9.23314666748047,9.60432243347168,9.60457897186279,9.60483455657959,9.6050910949707,9.60534763336182,9.60560321807861,9.60585975646973,9.60611629486084,9.60637187957764,9.60662841796875,9.60688495635986,9.60714149475098,9.60739803314209,9.60765361785889,9.60791015625,9.60816669464111,9.60842323303223,9.60867977142334,9.60893630981445,9.60919284820557,9.60944938659668,9.60970497131348,9.60996150970459,9.6102180480957,9.61047458648682,9.61073112487793,9.61098766326904,9.61124420166016,9.61150074005127,9.6117582321167,9.61201477050781,9.61227130889893,9.61252784729004,9.61278438568115,9.61304092407227,9.61329746246338,9.61355400085449,9.61381053924561,9.61406803131104,9.61432456970215,9.61458110809326,9.61483764648438,9.61509418487549,9.61535167694092,9.61560821533203,9.6326208114624,9.67277145385742,9.71325874328613,9.75408554077148,9.79525661468506,9.83677768707275,9.87865161895752,9.92088222503662,11.5860061645508,11.5857734680176,11.5855407714844,11.5853090286255,11.5850763320923,11.5848436355591,11.5846109390259,11.5843782424927,11.5841455459595,11.5839128494263,11.5836811065674,11.5834484100342,11.583215713501,11.5829830169678,11.5827503204346,11.5825185775757,11.5822858810425,11.5820531845093,11.5818204879761,11.5815887451172,11.581356048584,11.5811233520508,11.5808906555176,11.5806589126587,11.5804262161255,11.5801935195923,11.5799617767334,11.5797290802002,11.579496383667,11.5792646408081,11.5790319442749,11.578800201416,11.5785675048828,11.5820140838623,11.6402339935303,11.6990423202515,11.7584476470947,11.8184585571289,11.8790864944458,11.9403390884399,11.9933738708496,11.9950342178345,11.9966945648193,11.9983549118042,12.0000162124634,12.0016775131226,12.0033397674561,12.0050029754639,12.0066652297974,12.0083293914795,12.0099935531616,12.0116577148438,12.0133228302002,12.0149879455566,12.0166540145874,12.0183200836182,12.0199871063232,12.0216541290283,12.0233211517334,12.0249900817871,12.0266580581665,12.0283269882202,12.0299968719482,12.0316667556763,12.0333375930786,12.035008430481,12.0366792678833,12.03835105896,12.0400238037109,12.0416965484619,12.0433692932129,12.0450429916382,12.0467176437378,12.0483922958374,12.050066947937,12.032525062561,12.0350971221924,12.037670135498,12.040244102478,12.0428190231323,12.0453958511353,12.0479736328125,12.0505514144897,12.0531311035156,12.0557126998901,12.0582942962646,12.0608768463135,12.0634613037109,12.0660467147827,12.0686330795288,12.0712203979492,12.0738086700439,12.0763988494873,12.0789890289307,12.0815811157227,12.084174156189,12.0867681503296,12.0887231826782,12.0904092788696,12.0920963287354,12.0937833786011,12.0954713821411,12.0971593856812,12.0988483428955,12.1005373001099,12.1022272109985,12.1039171218872,12.1056079864502,12.1072988510132,12.1089897155762,12.1106824874878,12.1123743057251,12.1140670776367,12.1157608032227,12.1174545288086,12.1191492080688,12.1208438873291,12.1225395202637,12.1242351531982,12.1259307861328,12.127628326416,12.1293249130249,12.1310224533081,12.1327209472656,12.1344194412231,12.136118888855,12.1378183364868,12.139518737793,12.1441125869751,12.1532831192017,12.1624689102173,12.1716680526733,12.1808805465698,12.1901073455811,12.199348449707,12.2086029052734,12.2178726196289,12.2271556854248,12.2364521026611,12.2457637786865,12.2550897598267,12.2644290924072,12.2737827301025,12.2831516265869,12.2925338745117,12.3019304275513,12.3113422393799,12.3207674026489,12.330207824707,12.3396625518799,12.3491315841675,12.3586149215698,12.3681135177612,12.3776264190674,12.3871536254883,12.3966960906982,12.4062528610229,12.4158248901367,12.4254112243652,12.4350128173828,12.4446287155151,12.4542598724365,12.4639053344727,12.4735660552979,12.4832420349121,12.4929332733154,12.5026388168335,12.5123596191406,12.5220956802368,12.5318470001221,12.5416135787964,12.5513954162598,12.5611925125122,12.5710048675537,12.5808324813843,12.5906753540039,12.6005334854126,12.6104078292847,12.6202974319458,12.630202293396,12.6401224136353,12.6500587463379,12.6600103378296,12.6699771881104,12.6799602508545,12.689959526062,12.6999740600586,12.7100048065186,12.7200508117676,12.73011302948,12.7401914596558,12.7502851486206,12.7603950500488,12.7705211639404,12.7806634902954,12.7908220291138,12.8009967803955,12.8111867904663,12.8213939666748,12.8316173553467,12.8418569564819,12.8521127700806,12.8623847961426,12.8726739883423,12.8829784393311,12.8933000564575,12.9036388397217,12.9132738113403,12.9210233688354,12.9287824630737,12.9365501403809,12.9443283081055,12.9521150588989,12.9599113464355,12.9677171707153,12.9755325317383,12.9833564758301,12.991189956665,12.9990339279175,13.0068864822388,13.0147485733032,13.0226211547852,13.0452241897583,13.0737209320068,13.1023426055908,13.1310901641846,13.1599636077881,13.1806859970093,13.1971712112427,13.213698387146,13.2302665710449,13.2468757629395,13.2635278701782,13.2802209854126,13.2969560623169,13.3137340545654,13.3305549621582,13.3474168777466,13.3643226623535,13.3812713623047,13.3982620239258,13.4152965545654,13.4323749542236,13.4494962692261,13.4666614532471,13.4838705062866,13.5011234283447,13.5184211730957,13.5357627868652,13.5531482696533,13.5705795288086,13.5880556106567,13.6055765151978,13.6231422424316,13.6407537460327,13.658411026001,13.6761140823364,13.6938629150391,13.7116584777832
9.51194858551025,9.51220035552979,9.51245212554932,9.51270389556885,9.51295566558838,9.51320743560791,9.51346015930176,9.51371192932129,9.51396369934082,8.99334049224854,8.97184467315674,8.9504508972168,8.94103240966797,8.93698787689209,8.93294715881348,8.92891025543213,8.92487716674805,8.92084789276123,8.92316341400146,8.92613887786865,8.92911720275879,8.93209743499756,8.93507957458496,8.938063621521,8.94104957580566,8.94726848602295,8.95580196380615,8.9643497467041,8.97291278839111,8.98149299621582,8.99008941650391,8.99870204925537,9.00733184814453,9.0221529006958,9.03808498382568,9.0540714263916,9.07011222839355,9.08620929718018,9.10236358642578,9.12260437011719,9.15925598144531,9.19620513916016,9.23348045349121,9.52277183532715,9.523024559021,9.52327632904053,9.52352809906006,9.52377986907959,9.52403163909912,9.52428340911865,9.52453517913818,9.52478790283203,9.52503967285156,9.52529144287109,9.52554321289062,9.52579593658447,9.526047706604,9.52629947662354,9.52655124664307,9.52680397033691,9.52705574035645,9.52730751037598,9.52756023406982,9.52781200408936,9.52806377410889,9.52831649780273,9.52856826782227,9.52882099151611,9.52907276153564,9.52932548522949,9.52957725524902,9.52982997894287,9.5300817489624,9.53033447265625,9.53058624267578,9.53083896636963,9.53109073638916,9.53134346008301,9.53159523010254,9.53184795379639,9.53210067749023,9.53235244750977,9.53260517120361,9.53285694122314,9.53310966491699,9.55343341827393,9.59292507171631,9.63274478912354,9.67289543151855,9.71338367462158,9.75421142578125,9.79538440704346,9.83690547943115,9.87878131866455,9.92101287841797,11.5860071182251,11.5857744216919,11.5855417251587,11.5853090286255,11.5850763320923,11.5848436355591,11.5846109390259,11.5843782424927,11.5841464996338,11.5839138031006,11.5836811065674,11.5834484100342,11.583215713501,11.5829839706421,11.5827512741089,11.5825185775757,11.5822858810425,11.5820531845093,11.5818214416504,11.5815887451172,11.581356048584,11.5811243057251,11.5808916091919,11.5806589126587,11.5804262161255,11.5801944732666,11.5799617767334,11.5797290802002,11.5794973373413,11.5792646408081,11.5790319442749,11.578800201416,11.5785675048828,11.5821933746338,11.6404151916504,11.6992244720459,11.7586317062378,11.8186454772949,11.8792753219604,11.9405298233032,11.9888944625854,11.990553855896,11.9922122955322,11.9938716888428,11.9955320358276,11.9971923828125,11.9988536834717,12.0005149841309,12.00217628479,12.0038385391235,12.0055017471313,12.0071649551392,12.008828163147,12.0104923248291,12.0121564865112,12.0138216018677,12.0154876708984,12.0171537399292,12.01881980896,12.020486831665,12.0221538543701,12.0238218307495,12.0254898071289,12.0271587371826,12.0288276672363,12.0304975509644,12.0321674346924,12.0338382720947,12.0355091094971,12.0371809005737,12.0388526916504,12.0405254364014,12.0421981811523,12.0438718795776,12.0455455780029,12.0472192764282,12.0488948822021,12.0505695343018,12.0522451400757,12.0539216995239,12.0555982589722,12.0572748184204,12.058952331543,12.0606307983398,12.0623092651367,12.0639886856079,12.0656681060791,12.0673475265503,12.0690279006958,12.0707092285156,12.0723905563354,12.0740718841553,12.0757541656494,12.0774364471436,12.079119682312,12.0808038711548,12.0824880599976,12.0841722488403,12.0858573913574,12.0875425338745,12.0892286300659,12.0909156799316,12.0926027297974,12.0942897796631,12.0959777832031,12.0976657867432,12.0993547439575,12.1010437011719,12.1027336120605,12.1044244766235,12.1061143875122,12.1078062057495,12.1094980239868,12.1111898422241,12.1128826141357,12.1145753860474,12.1162691116333,12.1179628372192,12.1196575164795,12.1213521957397,12.1230478286743,12.1247434616089,12.1264400482178,12.1281366348267,12.1298341751099,12.1315317153931,12.1332302093506,12.1349287033081,12.1366281509399,12.1383285522461,12.1400279998779,12.1417293548584,12.1500873565674,12.1592674255371,12.1684617996216,12.1776695251465,12.1868915557861,12.1961278915405,12.2053775787354,12.2146415710449,12.2239198684692,12.2332124710083,12.2425184249878,12.251838684082,12.2611742019653,12.2705230712891,12.2798862457275,12.2892637252808,12.2986555099487,12.3080615997314,12.3174829483032,12.3269176483154,12.3363676071167,12.3458309173584,12.3553094863892,12.364803314209,12.3743104934692,12.3838329315186,12.3933706283569,12.4029216766357,12.4124889373779,12.4220695495605,12.4316663742065,12.441276550293,12.4509029388428,12.4605436325073,12.4701986312866,12.4798698425293,12.4895553588867,12.4992561340332,12.5089712142944,12.518702507019,12.5284481048584,12.5382099151611,12.5479860305786,12.5577774047852,12.5675849914551,12.5774068832397,12.5872449874878,12.5970973968506,12.6069660186768,12.616849899292,12.6267499923706,12.636664390564,12.6465950012207,12.6565418243408,12.66650390625,12.6764812469482,12.6864748001099,12.6964836120605,12.7065086364746,12.7165489196777,12.7266063690186,12.7366781234741,12.7467670440674,12.7568712234497,12.7669916152954,12.7771282196045,12.787281036377,12.7974500656128,12.807635307312,12.8178367614746,12.8280534744263,12.8382873535156,12.8485383987427,12.8588047027588,12.8690872192383,12.8793869018555,12.889702796936,12.90003490448,12.9103841781616,12.9207496643066,12.9311323165894,12.9405212402344,12.9483041763306,12.9560956954956,12.9638967514038,12.9717073440552,12.9795265197754,12.9873561859131,12.9951944351196,13.0030431747437,13.0152406692505,13.0436067581177,13.0720958709717,13.1004037857056,13.1166887283325,13.1330146789551,13.1493806838989,13.1657876968384,13.1822366714478,13.1987257003784,13.2152557373047,13.2318277359009,13.248441696167,13.265097618103,13.2817945480347,13.2985343933105,13.3153162002563,13.3321399688721,13.349006652832,13.3659162521362,13.3828687667847,13.3998641967773,13.4169025421143,13.4339847564697,13.4511108398438,13.468279838562,13.4854927062988,13.5027503967285,13.5200519561768,13.5373973846436,13.5547876358032,13.5722227096558,13.5897026062012,13.6072282791138,13.6247987747192,13.6424140930176,13.6600761413574
9.4317045211792,9.43195247650146,9.43220043182373,9.43244743347168,9.43269538879395,9.43294334411621,9.43319034576416,9.43343830108643,8.98560523986816,8.96414470672607,8.94278812408447,8.93045234680176,8.92641830444336,8.92238712310791,8.91835975646973,8.91433620452881,8.91031551361084,8.90877151489258,8.91173362731934,8.91469860076904,8.91766929626465,8.92064189910889,8.92361640930176,8.92659282684326,8.9295711517334,8.93557643890381,8.94408798217773,8.95261478424072,8.96115684509277,8.9697151184082,8.9782886505127,8.98687934875488,8.99548530578613,9.00632572174072,9.02220153808594,9.03813362121582,9.05412197113037,9.07016372680664,9.08626174926758,9.10241603851318,9.12294769287109,9.15960216522217,9.19655227661133,9.23381423950195,9.44259548187256,9.44284343719482,9.44309043884277,9.44333839416504,9.4435863494873,9.44383335113525,9.44408130645752,9.44432926177979,9.44457721710205,9.44482421875,9.44507217407227,9.44532012939453,9.4455680847168,9.44581604003906,9.44606304168701,9.44631099700928,9.44655895233154,9.44680690765381,9.44705486297607,9.44730281829834,9.44755077362061,9.44779872894287,9.44804668426514,9.4482946395874,9.44854259490967,9.44879055023193,9.4490385055542,9.44928646087646,9.44953441619873,9.449782371521,9.45003032684326,9.45027828216553,9.45052623748779,9.45077419281006,9.45102214813232,9.45127105712891,9.45151901245117,9.45176696777344,9.4520149230957,9.47553634643555,9.51438522338867,9.55355453491211,9.59304714202881,9.63286781311035,9.673020362854,9.71350860595703,9.75433826446533,9.79551124572754,9.83703422546387,9.87891006469727,9.92114353179932,11.5860071182251,11.5857744216919,11.5855417251587,11.5853090286255,11.5850763320923,11.5848436355591,11.5846118927002,11.584379196167,11.5841464996338,11.5839138031006,11.5836811065674,11.5834484100342,11.5832166671753,11.5829839706421,11.5827512741089,11.5825185775757,11.5822868347168,11.5820541381836,11.5818214416504,11.5815887451172,11.5813570022583,11.5811243057251,11.5808916091919,11.5806589126587,11.5804271697998,11.5801944732666,11.5799617767334,11.5797300338745,11.5794973373413,11.5792646408081,11.5790328979492,11.578800201416,11.5785675048828,11.5823726654053,11.6405963897705,11.6994075775146,11.7588167190552,11.8188323974609,11.8794631958008,11.9407196044922,11.9844188690186,11.9860763549805,11.9877338409424,11.9893922805786,11.9910507202148,11.9927101135254,11.9943695068359,11.9960298538208,11.9976902008057,11.9993515014648,12.001012802124,12.0026750564575,12.004337310791,12.0060005187988,12.0076637268066,12.0093269348145,12.0109910964966,12.012656211853,12.0143213272095,12.0159873962402,12.017653465271,12.0193195343018,12.0209865570068,12.0226545333862,12.0243225097656,12.025990486145,12.0276594161987,12.0293283462524,12.0309982299805,12.0326690673828,12.0343399047852,12.0360107421875,12.0376825332642,12.0393543243408,12.0410270690918,12.0426998138428,12.0443735122681,12.0460472106934,12.047721862793,12.0493965148926,12.0510721206665,12.0527477264404,12.0544242858887,12.0561008453369,12.0577783584595,12.059455871582,12.0611343383789,12.0628128051758,12.064492225647,12.0661716461182,12.0678520202637,12.0695323944092,12.0712127685547,12.0728940963745,12.0745763778687,12.0762586593628,12.0779418945312,12.0796251296997,12.0813083648682,12.0829925537109,12.084677696228,12.0863628387451,12.0880489349365,12.0897350311279,12.0914211273193,12.0931081771851,12.0947961807251,12.0964841842651,12.0981721878052,12.0998611450195,12.1015510559082,12.1032409667969,12.1049308776855,12.1066217422485,12.1083135604858,12.1100053787231,12.1116971969604,12.1133899688721,12.115083694458,12.1167764663696,12.1184711456299,12.1201658248901,12.1218605041504,12.123556137085,12.1252527236938,12.1269493103027,12.1286458969116,12.1303434371948,12.132040977478,12.1337394714355,12.1354389190674,12.1371383666992,12.1388378143311,12.1405382156372,12.1422395706177,12.1468915939331,12.1560678482056,12.1652565002441,12.1744604110718,12.1836776733398,12.1929082870483,12.2021532058716,12.2114124298096,12.2206859588623,12.2299737930298,12.2392749786377,12.2485904693604,12.2579202651978,12.2672643661499,12.2766227722168,12.2859954833984,12.2953824996948,12.304783821106,12.3141994476318,12.3236293792725,12.3330736160278,12.3425331115723,12.3520059585571,12.3614940643311,12.370997428894,12.3805141448975,12.3900461196899,12.3995933532715,12.4091539382935,12.4187307357788,12.4283208847046,12.4379272460938,12.4475479125977,12.4571828842163,12.4668340682983,12.4764986038208,12.4861793518066,12.4958744049072,12.5055856704712,12.5153112411499,12.5250520706177,12.5348072052002,12.5445785522461,12.5543651580811,12.5641670227051,12.5739831924438,12.583815574646,12.5936632156372,12.6035270690918,12.6134052276611,12.6232995986938,12.6332092285156,12.6431341171265,12.6530752182007,12.663031578064,12.6730031967163,12.682991027832,12.6929950714111,12.7030143737793,12.7130498886108,12.7231006622314,12.7331676483154,12.7432508468628,12.7533493041992,12.7634649276733,12.7735958099365,12.7837429046631,12.793906211853,12.804084777832,12.8142805099487,12.8244924545288,12.8347206115723,12.8449649810791,12.8552265167236,12.8655033111572,12.8757972717285,12.8861074447632,12.8964338302612,12.906777381897,12.9171371459961,12.9275140762329,12.9379072189331,12.9483165740967,12.9587430953979,12.9678840637207,12.9756994247437,12.9835243225098,12.991358757019,13.0136299133301,13.037181854248,13.0533103942871,13.0694780349731,13.0856866836548,13.1019353866577,13.1182241439819,13.1345539093018,13.1509237289429,13.1673345565796,13.1837863922119,13.2002801895142,13.216814994812,13.2333908081055,13.2500085830688,13.2666673660278,13.2833690643311,13.3001127243042,13.3168983459473,13.3337259292603,13.3505973815918,13.3675107955933,13.384467124939,13.4014663696289,13.4185094833374,13.4355955123901,13.4527244567871,13.469898223877,13.4871158599854,13.5043773651123,13.5216827392578,13.5390329360962,13.5564270019531,13.5738668441772,13.5913505554199,13.6088800430298
9.35280323028564,9.35304737091064,9.35329055786133,9.35353374481201,9.35377788543701,9.3540210723877,9.35426425933838,8.97788238525391,8.95645809173584,8.93513774871826,8.91989803314209,8.91587257385254,8.91185092926025,8.90783309936523,8.90381908416748,8.89980888366699,8.89580154418945,8.89737892150879,8.90033340454102,8.90329074859619,8.90625095367432,8.90921497344971,8.91218185424805,8.91515064239502,8.91812229156494,8.92391490936279,8.93240451812744,8.94090938568115,8.94943046569824,8.95796680450439,8.96651840209961,8.9750862121582,8.98367118835449,8.99227142333984,9.00637340545654,9.02225017547607,9.03818225860596,9.05417060852051,9.07021522521973,9.08631420135498,9.10246849060059,9.123291015625,9.15994834899902,9.19690132141113,9.23415374755859,9.36375713348389,9.36400032043457,9.36424446105957,9.36448764801025,9.36473178863525,9.36497497558594,9.36521816253662,9.36546230316162,9.3657054901123,9.3659496307373,9.36619281768799,9.36643695831299,9.36668014526367,9.36692428588867,9.36716747283936,9.36741161346436,9.36765480041504,9.36789894104004,9.36814212799072,9.36838626861572,9.36863040924072,9.36887359619141,9.36911773681641,9.36936187744141,9.36960506439209,9.36984920501709,9.37009334564209,9.37033653259277,9.37058067321777,9.37082481384277,9.37106895446777,9.37131214141846,9.37155628204346,9.37180042266846,9.37204456329346,9.37228775024414,9.39890003204346,9.43712139129639,9.4756555557251,9.51450538635254,9.55367565155029,9.59316921234131,9.63299083709717,9.67314434051514,9.71363353729248,9.7544641494751,9.79563903808594,9.83716297149658,9.87903881072998,9.92127323150635,11.5860071182251,11.5857744216919,11.5855417251587,11.5853099822998,11.5850772857666,11.5848445892334,11.5846118927002,11.584379196167,11.5841464996338,11.5839138031006,11.5836820602417,11.5834493637085,11.5832166671753,11.5829839706421,11.5827512741089,11.58251953125,11.5822868347168,11.5820541381836,11.5818214416504,11.5815896987915,11.5813570022583,11.5811243057251,11.5808916091919,11.580659866333,11.5804271697998,11.5801944732666,11.5799627304077,11.5797300338745,11.5794973373413,11.5792655944824,11.5790328979492,11.578800201416,11.5785684585571,11.5825519561768,11.6407775878906,11.6995906829834,11.7590017318726,11.819019317627,11.8796520233154,11.9409103393555,11.9799461364746,11.9816026687622,11.9832592010498,11.9849157333374,11.9865732192993,11.9882316589355,11.9898900985718,11.991548538208,11.9932079315186,11.9948673248291,11.996527671814,11.9981889724731,11.9998502731323,12.0015115737915,12.003173828125,12.0048360824585,12.0064992904663,12.0081624984741,12.0098266601562,12.0114908218384,12.0131559371948,12.0148210525513,12.016487121582,12.0181531906128,12.0198192596436,12.0214872360229,12.023154258728,12.0248222351074,12.0264911651611,12.0281600952148,12.0298299789429,12.0314998626709,12.0331697463989,12.0348405838013,12.0365123748779,12.0381841659546,12.0398559570312,12.0415287017822,12.0432024002075,12.0448751449585,12.0465497970581,12.0482244491577,12.0498991012573,12.0515747070312,12.0532512664795,12.0549268722534,12.056604385376,12.0582818984985,12.0599594116211,12.061637878418,12.0633163452148,12.064995765686,12.0666751861572,12.0683555603027,12.0700359344482,12.0717172622681,12.0733985900879,12.075080871582,12.0767631530762,12.0784463882446,12.0801296234131,12.0818138122559,12.0834980010986,12.0851831436157,12.0868682861328,12.0885543823242,12.0902404785156,12.0919275283813,12.0936145782471,12.0953025817871,12.0969905853271,12.0986785888672,12.1003684997559,12.1020574569702,12.1037473678589,12.1054382324219,12.1071290969849,12.1088209152222,12.1105127334595,12.1122045516968,12.1138982772827,12.1155910491943,12.1172847747803,12.1189794540405,12.1206741333008,12.1223697662354,12.1240653991699,12.1257610321045,12.1274576187134,12.1291551589966,12.1308526992798,12.1325511932373,12.1342496871948,12.1359481811523,12.1376476287842,12.1393480300903,12.1410484313965,12.142749786377,12.1444511413574,12.1528692245483,12.1620540618896,12.1712522506714,12.1804647445679,12.1896915435791,12.1989316940308,12.2081851959229,12.217453956604,12.2267360687256,12.2360334396362,12.245343208313,12.2546682357788,12.2640075683594,12.2733612060547,12.2827281951904,12.2921104431152,12.3015069961548,12.3109169006348,12.3203420639038,12.3297815322876,12.3392362594604,12.3487043380737,12.3581876754761,12.3676853179932,12.377197265625,12.3867244720459,12.3962659835815,12.4058218002319,12.4153928756714,12.4249782562256,12.4345788955688,12.4441947937012,12.4538249969482,12.4634704589844,12.4731302261353,12.4828052520752,12.4924955368042,12.5022010803223,12.5119209289551,12.5216569900513,12.5314073562622,12.5411729812622,12.5509538650513,12.5607500076294,12.5705623626709,12.5803890228271,12.5902309417725,12.6000890731812,12.6099624633789,12.6198511123657,12.6297550201416,12.6396751403809,12.6496105194092,12.6595611572266,12.6695280075073,12.6795101165771,12.6895084381104,12.6995220184326,12.7095518112183,12.7195978164673,12.7296590805054,12.7397365570068,12.7498292922974,12.7599391937256,12.7700643539429,12.7802057266235,12.7903633117676,12.800537109375,12.8107271194458,12.82093334198,12.8311557769775,12.8413944244385,12.8516492843628,12.8619213104248,12.8722095489502,12.882513999939,12.8928346633911,12.903172492981,12.9135265350342,12.9238967895508,12.9342842102051,12.9446887969971,12.9551095962524,12.9655466079712,12.976001739502,12.9905405044556,13.0065536499023,13.0226058959961,13.0386991500854,13.0548305511475,13.0710029602051,13.0872144699097,13.1034669876099,13.1197595596313,13.1360931396484,13.1524667739868,13.1688814163208,13.1853380203247,13.2018346786499,13.218373298645,13.2349529266357,13.2515745162964,13.268238067627,13.2849435806274,13.3016910552979,13.3184804916382,13.3353128433228,13.3521871566772,13.3691053390503,13.3860654830933,13.4030694961548,13.4201154708862,13.4372062683105,13.4543399810791,13.4715175628662,13.4887390136719,13.5060043334961,13.5233144760132,13.5406684875488,13.5580673217773
9.27521133422852,9.27545070648193,9.27569007873535,9.27592945098877,9.2761697769165,9.27640914916992,8.97017383575439,8.94878578186035,8.92750072479248,8.90936756134033,8.90535259246826,8.90134048461914,8.89733219146729,8.8933277130127,8.88932609558105,8.88532829284668,8.88306999206543,8.88601493835449,8.8889627456665,8.89191150665283,8.89486217498779,8.89781856536865,8.90077781677246,8.9037389755249,8.90670204162598,8.9122838973999,8.92075061798096,8.92923355102539,8.9377326965332,8.94624805450439,8.95477962493896,8.96332550048828,8.97188663482666,8.98046493530273,8.99060153961182,9.00642204284668,9.02229785919189,9.03822994232178,9.05421924591064,9.07026386260986,9.08636569976807,9.10252094268799,9.12363433837891,9.16029453277588,9.19725036621094,9.23450565338135,9.27206802368164,9.28646469116211,9.28670406341553,9.28694343566895,9.28718280792236,9.28742218017578,9.2876615524292,9.28790187835693,9.28814125061035,9.28838062286377,9.28861999511719,9.28886032104492,9.28909969329834,9.28933906555176,9.28957939147949,9.28981876373291,9.29005813598633,9.29029846191406,9.29053783416748,9.2907772064209,9.29101753234863,9.29125690460205,9.29149723052979,9.2917366027832,9.29197597503662,9.29221630096436,9.29245567321777,9.29269599914551,9.29293537139893,9.29317569732666,9.29341506958008,9.29365539550781,9.29389476776123,9.32349300384521,9.36110305786133,9.39901733398438,9.43723964691162,9.47577476501465,9.51462554931641,9.55379676818848,9.59329128265381,9.63311386108398,9.67326831817627,9.71375942230225,9.75459003448486,9.79576587677002,9.83729076385498,9.87916851043701,9.9214038848877,11.5860080718994,11.5857753753662,11.585542678833,11.5853099822998,11.5850772857666,11.5848445892334,11.5846118927002,11.584379196167,11.5841474533081,11.5839147567749,11.5836820602417,11.5834493637085,11.5832166671753,11.5829839706421,11.5827522277832,11.58251953125,11.5822868347168,11.5820541381836,11.5818223953247,11.5815896987915,11.5813570022583,11.5811243057251,11.5808925628662,11.580659866333,11.5804271697998,11.5801954269409,11.5799627304077,11.5797300338745,11.5794982910156,11.5792655944824,11.5790328979492,11.5788011550903,11.5785684585571,11.5827312469482,11.6409587860107,11.6997737884521,11.7591867446899,11.8192052841187,11.8798408508301,11.9411010742188,11.9754772186279,11.9771318435669,11.9787874221802,11.9804430007935,11.9820995330811,11.9837560653687,11.9854125976562,11.9870710372925,11.9887285232544,11.9903869628906,11.9920463562012,11.9937057495117,11.9953660964966,11.9970264434814,11.9986867904663,12.0003480911255,12.002010345459,12.0036725997925,12.005334854126,12.0069980621338,12.0086612701416,12.0103254318237,12.0119905471802,12.0136547088623,12.0153207778931,12.0169868469238,12.0186529159546,12.0203199386597,12.0219869613647,12.0236549377441,12.0253229141235,12.0269918441772,12.028660774231,12.030330657959,12.032000541687,12.0336713790894,12.0353422164917,12.037013053894,12.0386848449707,12.0403575897217,12.0420303344727,12.0437040328979,12.0453777313232,12.0470523834229,12.0487270355225,12.0504016876221,12.052077293396,12.0537538528442,12.0554304122925,12.0571069717407,12.0587844848633,12.0604629516602,12.062141418457,12.0638198852539,12.0654993057251,12.0671796798706,12.0688600540161,12.0705404281616,12.0722217559814,12.0739030838013,12.0755853652954,12.0772686004639,12.078950881958,12.0806350708008,12.0823192596436,12.0840034484863,12.0856885910034,12.0873737335205,12.0890598297119,12.0907459259033,12.092432975769,12.0941209793091,12.0958080291748,12.0974969863892,12.0991859436035,12.1008749008179,12.1025648117065,12.1042547225952,12.1059455871582,12.1076364517212,12.1093282699585,12.1110200881958,12.1127128601074,12.114405632019,12.116099357605,12.1177930831909,12.1194877624512,12.1211824417114,12.122878074646,12.1245737075806,12.1262702941895,12.1279668807983,12.1296644210815,12.1313619613647,12.1330604553223,12.1347589492798,12.1364583969116,12.1381578445435,12.1398582458496,12.1415586471558,12.1432600021362,12.1449613571167,12.1496734619141,12.1588525772095,12.1680469512939,12.1772537231445,12.1864757537842,12.1957111358643,12.2049598693848,12.2142238616943,12.2235012054443,12.2327928543091,12.2420988082886,12.2514181137085,12.2607526779175,12.2701005935669,12.2794637680054,12.2888402938843,12.2982320785522,12.3076372146606,12.3170576095581,12.3264923095703,12.3359403610229,12.345404624939,12.3548822402954,12.3643751144409,12.3738813400269,12.3834037780762,12.3929395675659,12.4024906158447,12.4120569229126,12.4216375350952,12.4312324523926,12.4408435821533,12.4504680633545,12.4601078033447,12.469762802124,12.4794330596924,12.4891176223755,12.498818397522,12.5085334777832,12.5182628631592,12.5280084609985,12.537769317627,12.5475444793701,12.5573358535767,12.5671424865723,12.5769634246826,12.5868005752563,12.5966529846191,12.606520652771,12.6164045333862,12.6263027191162,12.6362171173096,12.6461477279663,12.6560926437378,12.6660537719727,12.6760311126709,12.6860237121582,12.6960315704346,12.7060556411743,12.7160959243774,12.7261524200439,12.7362241744995,12.7463111877441,12.7564153671265,12.7665348052979,12.7766714096069,12.7868232727051,12.7969913482666,12.8071756362915,12.8173761367798,12.8275928497314,12.8378257751465,12.8480749130249,12.858341217041,12.8686237335205,12.8789224624634,12.8892374038696,12.8995685577393,12.9099168777466,12.9202823638916,12.9306640625,12.9410619735718,12.9514770507812,12.9619092941284,12.9680690765381,12.9766893386841,13.0080633163452,13.0241193771362,13.0402154922485,13.0563516616821,13.0725269317627,13.0887432098389,13.1049995422363,13.1212959289551,13.1376323699951,13.1540107727051,13.1704292297363,13.1868886947632,13.20339012146,13.2199325561523,13.2365159988403,13.2531414031982,13.2698087692261,13.2865180969238,13.3032693862915,13.3200635910034,13.3368997573853,13.3537788391113,13.3706998825073,13.3876638412476,13.4046716690063,13.4217224121094,13.438817024231,13.4559545516968,13.4731369018555,13.4903621673584,13.5076322555542
9.19889640808105,9.19913196563721,9.19936752319336,9.19960308074951,8.98393154144287,8.962477684021,8.94112682342529,8.91987705230713,8.89886283874512,8.89485645294189,8.89085483551025,8.88685512542725,8.88286018371582,8.87886905670166,8.87488079071045,8.87089538574219,8.87174224853516,8.874680519104,8.87761974334717,8.88056182861328,8.88350486755371,8.88645076751709,8.88940238952637,8.89235591888428,8.89531135559082,8.90068340301514,8.90912818908691,8.91758918762207,8.92606544494629,8.9345588684082,8.94306755065918,8.95159339904785,8.96013355255127,8.96868896484375,8.97726154327393,8.99064922332764,9.0064697265625,9.02234649658203,9.03827857971191,9.05426788330078,9.07031345367432,9.08641529083252,9.10257339477539,9.12397766113281,9.16064071655273,9.19759941101074,9.20973014831543,9.20996570587158,9.21020126342773,9.21043682098389,9.21067237854004,9.21090793609619,9.21114349365234,9.2113790512085,9.21161460876465,9.2118501663208,9.21208667755127,9.21232223510742,9.21255779266357,9.21279335021973,9.21302890777588,9.21326541900635,9.2135009765625,9.21373653411865,9.2139720916748,9.21420860290527,9.21444416046143,9.21467971801758,9.21491527557373,9.2151517868042,9.21538734436035,9.2156229019165,9.21585941314697,9.21609497070312,9.21633052825928,9.21656703948975,9.2168025970459,9.24928665161133,9.28629875183105,9.3236083984375,9.36121940612793,9.39913463592529,9.43735790252686,9.4758939743042,9.51474571228027,9.55391788482666,9.59341335296631,9.6332368850708,9.6733922958374,9.7138843536377,9.75471687316895,9.79589366912842,9.8374195098877,9.87929725646973,9.92153358459473,11.5860080718994,11.5857753753662,11.585542678833,11.5853099822998,11.5850772857666,11.5848445892334,11.5846128463745,11.5843801498413,11.5841474533081,11.5839147567749,11.5836820602417,11.5834493637085,11.5832176208496,11.5829849243164,11.5827522277832,11.58251953125,11.5822868347168,11.5820550918579,11.5818223953247,11.5815896987915,11.5813570022583,11.5811252593994,11.5808925628662,11.580659866333,11.5804281234741,11.5801954269409,11.5799627304077,11.5797309875488,11.5794982910156,11.5792655944824,11.5790338516235,11.5788011550903,11.5785684585571,11.5829105377197,11.6411399841309,11.6999568939209,11.7593717575073,11.8193922042847,11.8800296783447,11.941291809082,11.9710111618042,11.9726648330688,11.9743185043335,11.9759731292725,11.9776287078857,11.9792833328247,11.9809398651123,11.9825963973999,11.9842529296875,11.9859104156494,11.9875679016113,11.9892263412476,11.9908847808838,11.9925441741943,11.9942035675049,11.9958639144897,11.9975242614746,11.9991855621338,12.000846862793,12.0025081634521,12.0041704177856,12.0058336257935,12.0074968338013,12.0091609954834,12.0108251571655,12.0124893188477,12.0141544342041,12.0158205032349,12.0174865722656,12.0191526412964,12.0208196640015,12.0224866867065,12.0241546630859,12.0258235931396,12.0274925231934,12.0291614532471,12.0308313369751,12.0325012207031,12.0341720581055,12.0358428955078,12.0375146865845,12.0391864776611,12.0408592224121,12.0425319671631,12.0442056655884,12.0458793640137,12.0475540161133,12.0492286682129,12.0509042739868,12.0525798797607,12.054256439209,12.0559329986572,12.0576105117798,12.0592880249023,12.0609664916992,12.0626449584961,12.064323425293,12.0660028457642,12.0676832199097,12.0693635940552,12.071044921875,12.0727262496948,12.0744075775146,12.0760898590088,12.0777730941772,12.0794563293457,12.0811395645142,12.0828237533569,12.084508895874,12.0861940383911,12.0878791809082,12.0895652770996,12.0912523269653,12.0929393768311,12.0946264266968,12.0963144302368,12.0980033874512,12.0996923446655,12.1013813018799,12.1030712127686,12.1047620773315,12.1064529418945,12.1081438064575,12.1098356246948,12.1115274429321,12.1132202148438,12.1149139404297,12.1166076660156,12.1183013916016,12.1199960708618,12.1216907501221,12.1233863830566,12.1250829696655,12.1267786026001,12.1284761428833,12.1301736831665,12.1318712234497,12.1335697174072,12.1352682113647,12.1369676589966,12.1386680603027,12.1403675079346,12.142068862915,12.1437702178955,12.145471572876,12.1471738815308,12.1556529998779,12.1648426055908,12.1740446090698,12.1832609176636,12.1924915313721,12.2017364501953,12.210994720459,12.2202672958374,12.2295541763306,12.2388553619385,12.2481698989868,12.2574996948242,12.2668428421021,12.2762002944946,12.285572052002,12.294958114624,12.3043594360352,12.3137741088867,12.3232040405273,12.3326473236084,12.3421058654785,12.3515787124634,12.361065864563,12.3705682754517,12.3800849914551,12.3896160125732,12.3991622924805,12.4087228775024,12.4182987213135,12.4278888702393,12.4374933242798,12.4471130371094,12.456748008728,12.4663982391357,12.4760627746582,12.4857425689697,12.4954376220703,12.5051469802856,12.51487159729,12.5246124267578,12.5343675613403,12.5441379547119,12.5539236068726,12.5637245178223,12.573540687561,12.5833721160889,12.5932188034058,12.603081703186,12.6129598617554,12.6228532791138,12.6327619552612,12.6426858901978,12.6526260375977,12.6625823974609,12.672553062439,12.6825408935547,12.6925439834595,12.7025623321533,12.7125968933105,12.7226467132568,12.7327136993408,12.7427959442139,12.752893447876,12.7630081176758,12.7731380462646,12.7832851409912,12.7934474945068,12.8036260604858,12.8138208389282,12.824031829834,12.8342590332031,12.8445024490356,12.8547630310059,12.8650398254395,12.8753328323364,12.8856420516968,12.8959674835205,12.9063100814819,12.9166698455811,12.9270448684692,12.9374380111694,12.947322845459,12.9532957077026,12.9592752456665,12.965259552002,13.0095729827881,13.0256328582764,13.0417327880859,13.0578727722168,13.0740518569946,13.0902719497681,13.1065311431885,13.1228322982788,13.1391725540161,13.1555547714233,13.1719770431519,13.188440322876,13.20494556427,13.2214918136597,13.2380800247192,13.2547092437744,13.2713804244995,13.2880935668945,13.3048486709595,13.3216466903687,13.3384866714478,13.3553695678711,13.3722953796387,13.3892641067505,13.4062757492065,13.4233303070068,13.4404287338257,13.4575710296631
9.1238260269165,9.12405872344971,9.12428951263428,8.97621250152588,8.95479583740234,8.93348026275635,8.91226673126221,8.89115524291992,8.88438606262207,8.88039302825928,8.87640380859375,8.87241744995117,8.86843585968018,8.86445617675781,8.86048126220703,8.85751628875732,8.86044406890869,8.86337471008301,8.86630725860596,8.86924076080322,8.87217712402344,8.87511539459229,8.87805557250977,8.88100242614746,8.88395023345947,8.8891134262085,8.897536277771,8.90597438812256,8.91442966461182,8.92290019989014,8.93138694763184,8.93988990783691,8.94840908050537,8.95694446563721,8.96549415588379,8.97493171691895,8.99069690704346,9.00651836395264,9.02239513397217,9.03832721710205,9.05431652069092,9.07036209106445,9.08646488189697,9.10262393951416,9.12432098388672,9.13425350189209,9.13448524475098,9.13471698760986,9.13494873046875,9.13518047332764,9.13541221618652,9.13564395904541,9.1358757019043,9.13610744476318,9.13633918762207,9.13657093048096,9.13680362701416,9.13703536987305,9.13726711273193,9.13749885559082,9.13773059844971,9.13796234130859,9.1381950378418,9.13842678070068,9.13865852355957,9.13889026641846,9.13912296295166,9.13935470581055,9.13958644866943,9.13981819152832,9.14005088806152,9.14028263092041,9.1405143737793,9.14074611663818,9.14097881317139,9.17625141143799,9.21268081665039,9.24940013885498,9.28641319274902,9.32372379302979,9.36133575439453,9.39925193786621,9.43747615814209,9.47601318359375,9.51486587524414,9.55403900146484,9.59353542327881,9.63335990905762,9.67351722717285,9.71401023864746,9.75484275817871,9.79602146148682,9.83754730224609,9.87942695617676,9.92166423797607,11.5860080718994,11.5857753753662,11.585542678833,11.5853099822998,11.5850782394409,11.5848455429077,11.5846128463745,11.5843801498413,11.5841474533081,11.5839147567749,11.5836820602417,11.5834503173828,11.5832176208496,11.5829849243164,11.5827522277832,11.5825204849243,11.5822877883911,11.5820550918579,11.5818223953247,11.5815906524658,11.5813579559326,11.5811252593994,11.5808925628662,11.5806608200073,11.5804281234741,11.5801954269409,11.579963684082,11.5797309875488,11.5794982910156,11.5792665481567,11.5790338516235,11.5788011550903,11.5785694122314,11.5830898284912,11.641321182251,11.7001399993896,11.7595558166504,11.8195791244507,11.8802185058594,11.9414825439453,11.9665479660034,11.9682006835938,11.9698534011841,11.9715070724487,11.9731607437134,11.9748153686523,11.9764699935913,11.9781246185303,11.9797801971436,11.9814367294312,11.9830932617188,11.9847497940063,11.9864072799683,11.9880657196045,11.9897232055664,11.991382598877,11.9930419921875,11.994701385498,11.9963617324829,11.9980220794678,11.999683380127,12.0013446807861,12.0030069351196,12.0046691894531,12.0063323974609,12.0079956054688,12.0096597671509,12.011323928833,12.0129890441895,12.0146541595459,12.0163202285767,12.0179862976074,12.0196523666382,12.0213193893433,12.0229873657227,12.0246553421021,12.0263242721558,12.0279932022095,12.0296621322632,12.0313320159912,12.0330028533936,12.0346736907959,12.0363445281982,12.0380163192749,12.0396881103516,12.0413608551025,12.0430345535278,12.0447082519531,12.0463819503784,12.048056602478,12.0497312545776,12.0514068603516,12.0530824661255,12.0547590255737,12.0564365386963,12.0581130981445,12.0597915649414,12.061469078064,12.0631484985352,12.064826965332,12.0665073394775,12.0681867599487,12.0698680877686,12.0715484619141,12.0732307434082,12.074912071228,12.0765953063965,12.0782775878906,12.0799608230591,12.0816450119019,12.0833292007446,12.0850143432617,12.0866994857788,12.0883855819702,12.0900716781616,12.091757774353,12.0934457778931,12.0951328277588,12.0968208312988,12.0985097885132,12.1001987457275,12.1018886566162,12.1035785675049,12.1052684783936,12.1069593429565,12.1086511611938,12.1103429794312,12.1120357513428,12.1137285232544,12.115421295166,12.117115020752,12.1188097000122,12.1205043792725,12.1221990585327,12.1238946914673,12.1255912780762,12.1272878646851,12.1289854049683,12.1306829452515,12.1323804855347,12.1340789794922,12.135778427124,12.1374778747559,12.1391773223877,12.1408777236938,12.1425790786743,12.1442804336548,12.1459817886353,12.14768409729,12.152455329895,12.161639213562,12.1708374023438,12.1800489425659,12.1892747879028,12.1985139846802,12.2077684402466,12.2170352935791,12.2263174057007,12.235613822937,12.2449235916138,12.2542476654053,12.2635860443115,12.2729387283325,12.2823057174683,12.2916870117188,12.301082611084,12.310492515564,12.3199167251587,12.3293561935425,12.3388090133667,12.34827709198,12.357759475708,12.3672561645508,12.3767681121826,12.3862943649292,12.3958349227905,12.4053907394409,12.4149608612061,12.4245462417603,12.4341459274292,12.4437608718872,12.45339012146,12.4630346298218,12.4726943969727,12.4823684692383,12.492057800293,12.5017623901367,12.5114822387695,12.5212173461914,12.530966758728,12.540732383728,12.5505123138428,12.5603084564209,12.5701189041138,12.57994556427,12.5897874832153,12.5996437072754,12.6095170974731,12.6194047927856,12.6293077468872,12.6392269134521,12.6491613388062,12.6591119766235,12.66907787323,12.6790599822998,12.6890573501587,12.6990699768066,12.709098815918,12.7191438674927,12.7292051315308,12.7392816543579,12.7493743896484,12.759482383728,12.7696075439453,12.7797479629517,12.7899045944214,12.8000783920288,12.8102674484253,12.8204727172852,12.8306941986084,12.8409328460693,12.8511867523193,12.861457824707,12.8717451095581,12.8820486068726,12.8923692703247,12.9027051925659,12.9130592346191,12.9234285354614,12.9325971603394,12.9385566711426,12.9445219039917,12.9504928588867,12.9564685821533,12.9997911453247,13.0271472930908,13.0432510375977,13.0593938827515,13.0755767822266,13.0918006896973,13.1080646514893,13.1243686676025,13.1407136917114,13.1570987701416,13.1735248565674,13.1899929046631,13.2065019607544,13.2230520248413,13.2396440505981,13.2562770843506,13.2729520797729,13.2896690368652,13.3064289093018,13.3232307434082,13.3400745391846,13.3569612503052,13.37389087677,13.3908634185791,13.4078788757324
9.04997253417969,9.05020046234131,8.968505859375,8.9471263885498,8.92584705352783,8.90466976165771,8.88359355926514,8.87393951416016,8.86995601654053,8.86597633361816,8.86199951171875,8.8580265045166,8.85405731201172,8.85009098052979,8.84612941741943,8.84625339508057,8.84917449951172,8.8520975112915,8.85502243041992,8.85794925689697,8.86087799072266,8.86380767822266,8.86674022674561,8.86967754364014,8.87261772155762,8.87757301330566,8.88597393035889,8.89439010620117,8.90282344818115,8.9112720489502,8.91973686218262,8.92821788787842,8.93671417236328,8.94522762298584,8.95375728607178,8.96230125427246,8.97497940063477,8.99074554443359,9.00656604766846,9.02244281768799,9.03837585449219,9.05436515808105,9.05954837799072,9.05977630615234,9.06000423431396,9.06023216247559,9.06046009063721,9.06068801879883,9.06091594696045,9.06114387512207,9.06137180328369,9.06160068511963,9.06182861328125,9.06205654144287,9.06228446960449,9.06251239776611,9.06274032592773,9.06296920776367,9.06319713592529,9.06342506408691,9.06365299224854,9.06388187408447,9.06410980224609,9.06433773040771,9.06456565856934,9.06479454040527,9.06502246856689,9.06525039672852,9.06547832489014,9.06570720672607,9.0659351348877,9.06616401672363,9.06878185272217,9.10436153411865,9.14022064208984,9.17636299133301,9.21279335021973,9.24951362609863,9.28652763366699,9.32383918762207,9.36145210266113,9.39936923980713,9.43759441375732,9.4761323928833,9.51498603820801,9.55416011810303,9.59365749359131,9.63348388671875,9.67364120483398,9.71413516998291,9.75496959686279,9.7961483001709,9.83767509460449,9.87955570220947,9.92179393768311,11.5860090255737,11.5857763290405,11.5855436325073,11.5853109359741,11.5850782394409,11.5848455429077,11.5846128463745,11.5843801498413,11.5841474533081,11.5839157104492,11.583683013916,11.5834503173828,11.5832176208496,11.5829849243164,11.5827531814575,11.5825204849243,11.5822877883911,11.5820550918579,11.581823348999,11.5815906524658,11.5813579559326,11.5811252593994,11.5808935165405,11.5806608200073,11.5804281234741,11.5801963806152,11.579963684082,11.5797309875488,11.5794992446899,11.5792665481567,11.5790338516235,11.5788021087646,11.5785694122314,11.5832691192627,11.6415014266968,11.7003231048584,11.7597408294678,11.8197660446167,11.8804063796997,11.9416732788086,11.9620885848999,11.9637403488159,11.9653921127319,11.9670438766479,11.9686965942383,11.9703493118286,11.9720029830933,11.9736566543579,11.9753112792969,11.9769659042358,11.9786214828491,11.9802770614624,11.98193359375,11.9835901260376,11.9852466583252,11.9869041442871,11.9885625839233,11.9902210235596,11.9918804168701,11.9935398101807,11.9951992034912,11.9968595504761,11.9985208511353,12.0001821517944,12.0018434524536,12.0035057067871,12.0051679611206,12.0068311691284,12.0084953308105,12.0101585388184,12.0118236541748,12.0134878158569,12.0151538848877,12.0168199539185,12.0184860229492,12.0201530456543,12.0218200683594,12.0234880447388,12.0251560211182,12.0268239974976,12.0284938812256,12.0301628112793,12.0318326950073,12.0335035324097,12.035174369812,12.0368461608887,12.0385179519653,12.040189743042,12.041862487793,12.0435361862183,12.0452098846436,12.0468845367432,12.0485591888428,12.0502338409424,12.0519094467163,12.0535860061646,12.0552625656128,12.056939125061,12.0586166381836,12.0602941513062,12.061972618103,12.0636520385742,12.0653314590454,12.0670108795166,12.0686912536621,12.0703716278076,12.0720529556274,12.0737352371216,12.0754165649414,12.0770998001099,12.0787830352783,12.0804662704468,12.0821504592896,12.0838346481323,12.0855197906494,12.0872049331665,12.0888910293579,12.0905771255493,12.092264175415,12.0939512252808,12.0956392288208,12.0973272323608,12.0990161895752,12.1007051467896,12.1023950576782,12.1040849685669,12.1057758331299,12.1074666976929,12.1091585159302,12.1108503341675,12.1125431060791,12.1142358779907,12.1159296035767,12.1176233291626,12.1193180084229,12.1210126876831,12.1227083206177,12.1244039535522,12.1261005401611,12.12779712677,12.1294937133789,12.1311922073364,12.1328897476196,12.1345891952515,12.136287689209,12.1379871368408,12.139687538147,12.1413879394531,12.1430892944336,12.1447906494141,12.1464929580688,12.1481952667236,12.1498985290527,12.1584386825562,12.167631149292,12.1768388748169,12.1860589981079,12.195294380188,12.2045431137085,12.2138051986694,12.2230825424194,12.2323732376099,12.241678237915,12.250997543335,12.2603311538696,12.269679069519,12.2790412902832,12.2884168624878,12.2978076934814,12.3072128295898,12.316632270813,12.3260660171509,12.3355140686035,12.3449773788452,12.3544540405273,12.3639459609985,12.3734531402588,12.3829736709595,12.3925094604492,12.4020595550537,12.4116249084473,12.4212055206299,12.4307994842529,12.4404096603394,12.4500341415405,12.4596729278564,12.4693279266357,12.4789972305298,12.4886808395386,12.4983806610107,12.5080947875977,12.5178241729736,12.5275688171387,12.5373287200928,12.5471038818359,12.5568943023682,12.5666999816895,12.5765209197998,12.5863571166992,12.5962085723877,12.6060752868652,12.6159582138062,12.6258563995361,12.6357698440552,12.6456995010376,12.6556434631348,12.6656045913696,12.6755809783936,12.6855726242065,12.6955804824829,12.7056035995483,12.7156429290771,12.7256984710693,12.7357692718506,12.7458562850952,12.7559595108032,12.7660779953003,12.7762136459351,12.7863645553589,12.7965326309204,12.806715965271,12.816915512085,12.8271312713623,12.8373641967773,12.8476123809814,12.8578777313232,12.8681592941284,12.878457069397,12.8887720108032,12.8991022109985,12.9094505310059,12.9179048538208,12.9238510131836,12.929801940918,12.9357595443726,12.9417219161987,12.9476900100708,12.9553451538086,13.0286617279053,13.0447692871094,13.0609159469604,13.0771026611328,13.0933294296265,13.1095972061157,13.1259050369263,13.1422538757324,13.1586437225342,13.1750736236572,13.1915454864502,13.2080574035645,13.2246122360229,13.2412071228027,13.2578449249268,13.2745237350464,13.2912454605103,13.3080081939697,13.3248138427734,13.3416624069214,13.3585529327393
8.97730350494385,8.96081352233887,8.93946933746338,8.91822719573975,8.89708614349365,8.87604427337646,8.86351776123047,8.859543800354,8.85557270050049,8.85160636901855,8.84764194488525,8.84368228912354,8.83972549438477,8.83577251434326,8.83210849761963,8.83502006530762,8.83793354034424,8.84084892272949,8.84376621246338,8.8466854095459,8.84960651397705,8.85252952575684,8.85545539855957,8.85838222503662,8.86131381988525,8.86606216430664,8.87444114685059,8.88283634185791,8.8912467956543,8.89967346191406,8.90811634063721,8.91657543182373,8.92504978179932,8.9335412979126,8.94204807281494,8.95057201385498,8.95931720733643,8.9750280380249,8.98583030700684,8.98605442047119,8.98627948760986,8.98650360107422,8.98672771453857,8.98695182800293,8.98717594146729,8.98740100860596,8.98762512207031,8.98784923553467,8.98807334899902,8.9882984161377,8.98852252960205,8.98874664306641,8.98897075653076,8.98919582366943,8.98941993713379,8.98964500427246,8.98986911773682,8.99009323120117,8.99031829833984,8.9905424118042,8.99076747894287,8.99099159240723,8.99121570587158,8.99144077301025,8.99166488647461,8.99188995361328,8.99211406707764,8.99233913421631,8.99256324768066,8.99278831481934,8.99855995178223,9.03358840942383,9.06889152526855,9.10447120666504,9.14033126831055,9.17647552490234,9.21290588378906,9.24962711334229,9.28664207458496,9.32395458221436,9.36156845092773,9.39948654174805,9.43771266937256,9.47625160217285,9.51510620117188,9.55428123474121,9.59378051757812,9.63360691070557,9.67376518249512,9.71426010131836,9.75509548187256,9.79627513885498,9.83780288696289,9.87968444824219,9.92192459106445,11.5860090255737,11.5857763290405,11.5855436325073,11.5853109359741,11.5850782394409,11.5848455429077,11.5846128463745,11.5843811035156,11.5841484069824,11.5839157104492,11.583683013916,11.5834503173828,11.5832176208496,11.5829858779907,11.5827531814575,11.5825204849243,11.5822877883911,11.5820560455322,11.581823348999,11.5815906524658,11.5813579559326,11.5811262130737,11.5808935165405,11.5806608200073,11.5804290771484,11.5801963806152,11.579963684082,11.5797319412231,11.5794992446899,11.5792665481567,11.5790348052979,11.5788021087646,11.5785694122314,11.5834484100342,11.6416826248169,11.7005062103271,11.7599258422852,11.8199529647827,11.8805952072144,11.9418640136719,11.9576330184937,11.959282875061,11.9609336853027,11.9625844955444,11.9642353057861,11.9658870697021,11.9675397872925,11.9691925048828,11.9708452224731,11.9724988937378,11.9741525650024,11.9758071899414,11.9774627685547,11.979118347168,11.9807739257812,11.9824304580688,11.9840869903564,11.9857444763184,11.9874019622803,11.9890604019165,11.9907188415527,11.992377281189,11.9940376281738,11.9956970214844,11.9973573684692,11.9990186691284,12.0006799697876,12.0023422241211,12.0040044784546,12.0056667327881,12.0073299407959,12.008994102478,12.0106582641602,12.0123224258423,12.0139875411987,12.0156536102295,12.0173196792603,12.018985748291,12.0206527709961,12.0223197937012,12.0239877700806,12.02565574646,12.0273246765137,12.0289945602417,12.0306634902954,12.0323343276978,12.0340042114258,12.0356760025024,12.0373477935791,12.0390195846558,12.0406913757324,12.0423650741577,12.0440378189087,12.0457124710083,12.0473861694336,12.0490608215332,12.0507364273071,12.0524120330811,12.0540885925293,12.0557651519775,12.0574426651001,12.0591201782227,12.0607976913452,12.0624761581421,12.0641555786133,12.0658349990845,12.0675144195557,12.0691957473755,12.070876121521,12.0725574493408,12.074239730835,12.0759220123291,12.0776042938232,12.0792875289917,12.0809717178345,12.0826559066772,12.08434009552,12.0860252380371,12.0877103805542,12.0893964767456,12.0910835266113,12.0927705764771,12.0944576263428,12.0961456298828,12.0978336334229,12.0995225906372,12.1012125015259,12.1029024124146,12.1045923233032,12.1062831878662,12.1079740524292,12.1096658706665,12.1113586425781,12.1130504608154,12.1147441864014,12.1164379119873,12.1181316375732,12.1198263168335,12.1215209960938,12.1232166290283,12.1249122619629,12.1266088485718,12.128306388855,12.1300029754639,12.1317014694214,12.1333999633789,12.1350984573364,12.1367979049683,12.1384973526001,12.1401977539062,12.1418981552124,12.1435995101929,12.1453008651733,12.1470031738281,12.1487054824829,12.150408744812,12.1552391052246,12.1644277572632,12.1736297607422,12.1828451156616,12.1920757293701,12.2013187408447,12.2105770111084,12.2198486328125,12.2291355133057,12.2384357452393,12.2477493286133,12.2570781707764,12.2664213180542,12.2757778167725,12.2851495742798,12.2945346832275,12.3039350509644,12.3133497238159,12.3227777481079,12.332221031189,12.3416786193848,12.3511514663696,12.3606376647949,12.3701391220093,12.3796548843384,12.3891859054565,12.3987312316895,12.4082908630371,12.4178657531738,12.4274559020996,12.4370603561401,12.4466791152954,12.4563131332397,12.4659624099731,12.4756269454956,12.4853057861328,12.4949998855591,12.5047092437744,12.5144329071045,12.5241727828979,12.5339269638062,12.5436964035034,12.5534820556641,12.5632820129395,12.5730972290039,12.5829286575317,12.5927743911743,12.6026363372803,12.6125135421753,12.6224060058594,12.6323146820068,12.6422386169434,12.6521778106689,12.6621332168579,12.6721038818359,12.682089805603,12.6920919418335,12.7021102905273,12.7121438980103,12.7221937179565,12.7322587966919,12.7423400878906,12.7524375915527,12.7625513076782,12.7726812362671,12.782826423645,12.7929887771606,12.8031663894653,12.8133602142334,12.8235712051392,12.833797454834,12.8440408706665,12.8542995452881,12.8645753860474,12.8748683929443,12.8851766586304,12.8955020904541,12.9032459259033,12.9091787338257,12.9151163101196,12.9210596084595,12.9270086288452,12.9329633712769,12.9389238357544,12.9448890686035,13.0229749679565,13.0462865829468,13.0624380111694,13.0786285400391,13.0948600769043,13.1111316680908,13.1274433135986,13.1437950134277,13.1601886749268,13.1766223907471,13.1930980682373,13.2096147537231,13.2261724472046,13.242772102356,13.2594137191772,13.2760963439941,13.2928218841553,13.3095893859863
8.90579319000244,8.90601444244385,8.90623474121094,8.8895149230957,8.86850929260254,8.85312080383301,8.84915542602539,8.84519481658936,8.84123611450195,8.83728218078613,8.83333110809326,8.82938385009766,8.82544040679932,8.82149982452393,8.8209114074707,8.82381534576416,8.82672119140625,8.82962894439697,8.83253955841064,8.83545112609863,8.83836460113525,8.84127998352051,8.84419822692871,8.84711742401123,8.8500394821167,8.85458183288574,8.86293888092041,8.87131214141846,8.87970066070557,8.88810634613037,8.89652633666992,8.90496349334717,8.91286182403564,8.91308212280273,8.91330337524414,8.91352367401123,8.91374397277832,8.91396522521973,8.91418552398682,8.91440677642822,8.91462707519531,8.91484832763672,8.91506862640381,8.91528987884521,8.9155101776123,8.91573047637939,8.9159517288208,8.91617202758789,8.9163932800293,8.91661357879639,8.91683483123779,8.9170560836792,8.91727638244629,8.9174976348877,8.91771793365479,8.91793918609619,8.9181604385376,8.91838073730469,8.91860198974609,8.91882228851318,8.91904354095459,8.919264793396,8.9194860458374,8.91970634460449,8.9199275970459,8.9201488494873,8.92036914825439,8.9205904006958,8.92941570281982,8.96390819549561,8.99866771697998,9.0336971282959,9.06900119781494,9.10458183288574,9.14044284820557,9.17658710479736,9.2130184173584,9.24974060058594,9.28675651550293,9.32406997680664,9.36168479919434,9.39960384368896,9.43783092498779,9.4763708114624,9.51522636413574,9.55440235137939,9.59390258789062,9.63372993469238,9.67388916015625,9.71438598632812,9.75522232055664,9.79640197753906,9.83793163299561,9.87981414794922,9.9220552444458,11.5860090255737,11.5857763290405,11.5855436325073,11.5853109359741,11.5850791931152,11.584846496582,11.5846138000488,11.5843811035156,11.5841484069824,11.5839157104492,11.583683013916,11.5834512710571,11.5832185745239,11.5829858779907,11.5827531814575,11.5825204849243,11.5822887420654,11.5820560455322,11.581823348999,11.5815906524658,11.5813589096069,11.5811262130737,11.5808935165405,11.5806617736816,11.5804290771484,11.5801963806152,11.5799646377563,11.5797319412231,11.5794992446899,11.5792675018311,11.5790348052979,11.5788021087646,11.5785703659058,11.58362865448,11.641863822937,11.7006883621216,11.7601108551025,11.8201398849487,11.880784034729,11.9420547485352,11.9531803131104,11.9548292160034,11.9564781188965,11.9581279754639,11.9597778320312,11.9614286422729,11.9630794525146,11.9647312164307,11.9663829803467,11.9680347442627,11.9696884155273,11.9713411331177,11.9729948043823,11.9746494293213,11.9763040542603,11.9779586791992,11.9796142578125,11.9812707901001,11.9829273223877,11.9845838546753,11.9862413406372,11.9878988265991,11.9895572662354,11.9912166595459,11.9928750991821,11.994535446167,11.9961948394775,11.9978561401367,11.9995164871216,12.0011787414551,12.0028400421143,12.0045032501221,12.0061655044556,12.0078287124634,12.0094928741455,12.0111570358276,12.0128221511841,12.0144872665405,12.0161533355713,12.0178194046021,12.0194854736328,12.0211524963379,12.0228204727173,12.0244884490967,12.0261564254761,12.0278253555298,12.0294952392578,12.0311651229858,12.0328350067139,12.0345058441162,12.0361766815186,12.0378484725952,12.0395212173462,12.0411939620972,12.0428667068481,12.0445404052734,12.0462141036987,12.0478887557983,12.0495634078979,12.0512390136719,12.0529146194458,12.054591178894,12.0562677383423,12.0579452514648,12.0596227645874,12.0613012313843,12.0629796981812,12.0646591186523,12.0663385391235,12.068018913269,12.0696992874146,12.0713806152344,12.0730619430542,12.0747442245483,12.0764265060425,12.0781087875366,12.0797929763794,12.0814762115479,12.0831604003906,12.0848455429077,12.0865306854248,12.0882167816162,12.0899028778076,12.091588973999,12.0932760238647,12.0949640274048,12.0966520309448,12.0983409881592,12.1000299453735,12.1017189025879,12.1034088134766,12.1050996780396,12.1067905426025,12.1084814071655,12.1101732254028,12.1118659973145,12.1135587692261,12.1152515411377,12.1169452667236,12.1186399459839,12.1203346252441,12.1220293045044,12.123724937439,12.1254215240479,12.1271181106567,12.1288146972656,12.1305122375488,12.1322107315063,12.1339092254639,12.1356077194214,12.1373071670532,12.1390075683594,12.1407079696655,12.1424083709717,12.1441097259521,12.1458120346069,12.1475143432617,12.1492166519165,12.1509199142456,12.152624130249,12.1612253189087,12.1704225540161,12.179633140564,12.1888580322266,12.1980972290039,12.207350730896,12.2166175842285,12.2258987426758,12.2351942062378,12.2445030212402,12.2538270950317,12.2631645202637,12.2725172042847,12.2818832397461,12.2912635803223,12.3006582260132,12.3100681304932,12.3194913864136,12.328929901123,12.3383827209473,12.3478498458862,12.3573312759399,12.3668279647827,12.3763389587402,12.3858642578125,12.3954048156738,12.4049596786499,12.4145288467407,12.4241132736206,12.4337129592896,12.4433269500732,12.4529552459717,12.4625997543335,12.4722585678101,12.4819316864014,12.4916210174561,12.5013246536255,12.511043548584,12.5207777023315,12.5305271148682,12.5402917861938,12.5500707626343,12.5598659515381,12.569676399231,12.5795021057129,12.5893430709839,12.5991992950439,12.6090707778931,12.6189584732056,12.6288614273071,12.6387796401978,12.6487131118774,12.6586627960205,12.668628692627,12.6786088943481,12.688606262207,12.6986179351807,12.708646774292,12.7186908721924,12.7287511825562,12.738826751709,12.7489185333252,12.7590265274048,12.7691507339478,12.7792901992798,12.7894468307495,12.7996187210083,12.8098077774048,12.8200120925903,12.8302326202393,12.8404703140259,12.8507242202759,12.8609943389893,12.871280670166,12.8815832138062,12.8886194229126,12.8945388793945,12.9004640579224,12.9063940048218,12.9123296737671,12.918270111084,12.9242172241211,12.9301691055298,12.9361267089844,12.9783706665039,13.0478057861328,13.0639610290527,13.0801553726196,13.0963897705078,13.1126651763916,13.1289806365967,13.1453371047974,13.1617345809937,13.1781721115112,13.1946516036987,13.2111711502075,13.2277336120605,13.2443370819092,13.2609815597534
8.83541297912598,8.83563041687012,8.83584785461426,8.8360652923584,8.83628273010254,8.83649921417236,8.83483982086182,8.83089160919189,8.82694625854492,8.82300472259521,8.81906700134277,8.81513214111328,8.81120109558105,8.80727386474609,8.80974197387695,8.81263828277588,8.81553745269775,8.81843757629395,8.82134056091309,8.82424449920654,8.82715129852295,8.83005905151367,8.83296966552734,8.83588218688965,8.83879566192627,8.84084892272949,8.84106636047363,8.84128379821777,8.84150123596191,8.84171867370605,8.84193706512451,8.84215354919434,8.84237098693848,8.84258842468262,8.84280490875244,8.84302234649658,8.84323978424072,8.84345722198486,8.843674659729,8.84389114379883,8.84410858154297,8.84432601928711,8.84454345703125,8.84476089477539,8.84497737884521,8.84519481658936,8.8454122543335,8.84562969207764,8.84584712982178,8.84606456756592,8.84628200531006,8.8464994430542,8.84671592712402,8.84693336486816,8.8471508026123,8.84736824035645,8.84758567810059,8.84780311584473,8.84802055358887,8.84823799133301,8.84845542907715,8.84867286682129,8.84889030456543,8.84910774230957,8.84932613372803,8.84954261779785,8.86132717132568,8.89529418945312,8.92952156066895,8.96401405334473,8.99877452850342,9.03380584716797,9.06910991668701,9.10469150543213,9.14055347442627,9.17669868469238,9.21313095092773,9.24985408782959,9.2868709564209,9.32418537139893,9.36180114746094,9.39972114562988,9.43794918060303,9.47649002075195,9.51534652709961,9.55452346801758,9.59402465820312,9.6338529586792,9.6740140914917,9.71451091766357,9.75534820556641,9.79652881622314,9.838059425354,9.87994289398193,9.92218494415283,11.5860090255737,11.5857772827148,11.5855445861816,11.5853118896484,11.5850791931152,11.584846496582,11.5846138000488,11.5843811035156,11.5841484069824,11.5839166641235,11.5836839675903,11.5834512710571,11.5832185745239,11.5829858779907,11.5827541351318,11.5825214385986,11.5822887420654,11.5820560455322,11.581823348999,11.5815916061401,11.5813589096069,11.5811262130737,11.5808944702148,11.5806617736816,11.5804290771484,11.5801973342896,11.5799646377563,11.5797319412231,11.5795001983643,11.5792675018311,11.5790348052979,11.578803062439,11.5785703659058,11.5838079452515,11.6420450210571,11.7008714675903,11.7602958679199,11.8203268051147,11.8809728622437,11.9422445297241,11.9487314224243,11.9503784179688,11.9520263671875,11.9536743164062,11.9553232192993,11.9569730758667,11.9586229324341,11.9602727890015,11.9619235992432,11.9635744094849,11.9652261734009,11.9668779373169,11.9685306549072,11.9701833724976,11.9718370437622,11.9734907150269,11.9751453399658,11.9767999649048,11.9784555435181,11.9801111221313,11.9817676544189,11.9834241867065,11.9850807189941,11.9867382049561,11.9883966445923,11.9900550842285,11.9917135238647,11.9933729171753,11.9950332641602,11.996693611145,11.9983539581299,12.0000152587891,12.0016765594482,12.0033388137817,12.0050020217896,12.006664276123,12.0083284378052,12.0099925994873,12.0116567611694,12.0133218765259,12.0149869918823,12.0166530609131,12.0183191299438,12.0199851989746,12.021653175354,12.0233201980591,12.0249881744385,12.0266571044922,12.0283260345459,12.0299959182739,12.031665802002,12.03333568573,12.0350074768066,12.036678314209,12.0383501052856,12.0400228500366,12.0416955947876,12.0433683395386,12.0450420379639,12.0467166900635,12.0483913421631,12.0500659942627,12.0517416000366,12.0534181594849,12.0550937652588,12.0567712783813,12.0584487915039,12.0601263046265,12.0618047714233,12.0634832382202,12.0651626586914,12.0668430328369,12.0685224533081,12.0702037811279,12.0718851089478,12.0735664367676,12.0752487182617,12.0769309997559,12.0786142349243,12.0802974700928,12.0819816589355,12.0836658477783,12.0853509902954,12.0870361328125,12.0887222290039,12.0904083251953,12.092095375061,12.0937824249268,12.0954704284668,12.0971584320068,12.0988473892212,12.1005363464355,12.1022262573242,12.1039161682129,12.1056060791016,12.1072978973389,12.1089887619019,12.1106805801392,12.1123733520508,12.1140661239624,12.1157598495483,12.1174535751343,12.1191482543945,12.1208429336548,12.1225385665894,12.1242341995239,12.1259298324585,12.1276264190674,12.1293239593506,12.1310214996338,12.1327199935913,12.1344184875488,12.1361179351807,12.1378173828125,12.1395168304443,12.1412181854248,12.142918586731,12.1446199417114,12.1463222503662,12.148024559021,12.1497278213501,12.1514310836792,12.1531343460083,12.1580247879028,12.1672163009644,12.1764230728149,12.185643196106,12.1948776245117,12.2041254043579,12.2133874893188,12.2226638793945,12.231954574585,12.2412586212158,12.2505769729614,12.2599105834961,12.2692575454712,12.278618812561,12.2879943847656,12.297384262085,12.306788444519,12.3162069320679,12.3256406784058,12.3350877761841,12.3445501327515,12.3540267944336,12.3635177612305,12.3730239868164,12.3825445175171,12.3920793533325,12.4016284942627,12.4111938476562,12.4207725524902,12.4303665161133,12.4399757385254,12.4495992660522,12.4592380523682,12.4688920974731,12.4785604476929,12.4882440567017,12.4979429244995,12.5076560974121,12.5173854827881,12.5271291732788,12.5368881225586,12.5466623306274,12.5564517974854,12.5662574768066,12.5760774612427,12.5859127044678,12.5957641601562,12.6056299209595,12.6155118942261,12.6254091262817,12.6353225708008,12.6452512741089,12.6551952362061,12.6651544570923,12.6751308441162,12.6851215362549,12.6951284408569,12.7051515579224,12.7151899337769,12.7252445220947,12.7353143692017,12.7454013824463,12.75550365448,12.7656221389771,12.7757558822632,12.785906791687,12.7960729598999,12.8062562942505,12.8164548873901,12.8266706466675,12.8369026184082,12.847149848938,12.8574142456055,12.8676948547363,12.8740272521973,12.8799333572388,12.8858442306519,12.8917608261108,12.8976831436157,12.9036102294922,12.9095439910889,12.9154825210571,12.921425819397,12.927375793457,12.9340715408325,13.0462427139282,13.0654830932617,13.0816822052002,13.0979204177856,13.1141996383667,13.130518913269,13.146879196167,13.1632795333862,13.1797218322754,13.1962051391602,13.2127294540405
8.76613616943359,8.76635074615479,8.76656436920166,8.76677799224854,8.76699161529541,8.7672061920166,8.76741981506348,8.76763439178467,8.76784801483154,8.76806163787842,8.76827621459961,8.76848983764648,8.76870441436768,8.76891803741455,8.76913166046143,8.76934623718262,8.76955986022949,8.76977443695068,8.76998805999756,8.77020263671875,8.77041625976562,8.77063083648682,8.77084445953369,8.77105903625488,8.77127265930176,8.77148723602295,8.77170181274414,8.77191543579102,8.77213001251221,8.77234363555908,8.77255821228027,8.77277278900146,8.77298641204834,8.77320098876953,8.77341461181641,8.77362823486328,8.77384185791016,8.77405548095703,8.77427005767822,8.7744836807251,8.77469730377197,8.77491092681885,8.77512550354004,8.77533912658691,8.77555274963379,8.77576637268066,8.77598094940186,8.77619457244873,8.77640819549561,8.77662181854248,8.77683639526367,8.77705001831055,8.77726459503174,8.77747821807861,8.77769184112549,8.77790641784668,8.77812004089355,8.77833366394043,8.77854824066162,8.7787618637085,8.77897644042969,8.77919006347656,8.77940464019775,8.77961826324463,8.79426860809326,8.82772254943848,8.86143112182617,8.89539909362793,8.92962741851807,8.96412086486816,8.99888229370117,9.03391361236572,9.06921863555908,9.10480117797852,9.14066410064697,9.1768102645874,9.21324348449707,9.24996757507324,9.28698539733887,9.32430076599121,9.36191749572754,9.3998384475708,9.43806743621826,9.4766092300415,9.51546669006348,9.55464458465576,9.59414672851562,9.63397598266602,9.67413806915283,9.71463584899902,9.75547409057617,9.79665660858154,9.8381872177124,9.88007259368896,9.92231559753418,11.586009979248,11.5857772827148,11.5855445861816,11.5853118896484,11.5850791931152,11.584846496582,11.5846138000488,11.5843820571899,11.5841493606567,11.5839166641235,11.5836839675903,11.5834512710571,11.5832185745239,11.582986831665,11.5827541351318,11.5825214385986,11.5822887420654,11.5820569992065,11.5818243026733,11.5815916061401,11.5813589096069,11.581127166748,11.5808944702148,11.5806617736816,11.5804300308228,11.5801973342896,11.5799646377563,11.5797328948975,11.5795001983643,11.5792675018311,11.5790357589722,11.578803062439,11.5785703659058,11.5839872360229,11.6422262191772,11.7010545730591,11.7604808807373,11.8205127716064,11.8811616897583,11.9424352645874,11.9442844390869,11.9459314346313,11.9475774765015,11.9492254257202,11.9508724212646,11.9525203704834,11.9541692733765,11.9558181762695,11.9574680328369,11.9591178894043,11.9607677459717,11.9624185562134,11.9640703201294,11.9657220840454,11.9673738479614,11.9690265655518,11.9706792831421,11.9723329544067,11.9739875793457,11.9756412506104,11.9772968292236,11.9789524078369,11.9806079864502,11.9822645187378,11.9839210510254,11.9855785369873,11.9872360229492,11.9888935089111,11.9905529022217,11.9922113418579,11.9938707351685,11.9955310821533,11.9971914291382,11.9988527297974,12.0005140304565,12.0021753311157,12.0038375854492,12.005500793457,12.0071640014648,12.0088272094727,12.0104913711548,12.0121555328369,12.0138206481934,12.0154867172241,12.0171527862549,12.0188188552856,12.0204858779907,12.0221529006958,12.0238208770752,12.0254888534546,12.0271577835083,12.028826713562,12.03049659729,12.0321664810181,12.0338373184204,12.0355081558228,12.0371799468994,12.0388517379761,12.0405244827271,12.042197227478,12.0438709259033,12.0455446243286,12.0472183227539,12.0488929748535,12.0505685806274,12.0522441864014,12.0539207458496,12.0555973052979,12.0572738647461,12.0589513778687,12.0606298446655,12.0623083114624,12.0639867782593,12.0656661987305,12.067346572876,12.0690269470215,12.070707321167,12.0723886489868,12.074070930481,12.0757532119751,12.0774354934692,12.0791187286377,12.0808029174805,12.0824871063232,12.084171295166,12.0858564376831,12.0875415802002,12.0892276763916,12.0909147262573,12.0926008224487,12.0942888259888,12.0959768295288,12.0976648330688,12.0993537902832,12.1010427474976,12.1027326583862,12.1044225692749,12.1061134338379,12.1078052520752,12.1094961166382,12.1111888885498,12.1128816604614,12.114574432373,12.116268157959,12.1179618835449,12.1196565628052,12.1213512420654,12.123046875,12.1247425079346,12.1264390945435,12.1281356811523,12.1298332214355,12.1315307617188,12.1332292556763,12.1349277496338,12.1366271972656,12.1383266448975,12.1400270462036,12.1417274475098,12.1434288024902,12.145131111145,12.1468324661255,12.1485357284546,12.1502380371094,12.1519422531128,12.1536455154419,12.1553506851196,12.1640129089355,12.1732139587402,12.1824293136597,12.1916589736938,12.2009019851685,12.2101593017578,12.2194309234619,12.2287158966064,12.2380151748657,12.2473297119141,12.2566576004028,12.2659997940063,12.2753553390503,12.2847261428833,12.2941112518311,12.3035106658936,12.3129243850708,12.3223524093628,12.3317947387695,12.3412523269653,12.3507232666016,12.3602094650269,12.3697109222412,12.379225730896,12.3887557983398,12.3983001708984,12.4078598022461,12.4174337387085,12.42702293396,12.4366264343262,12.4462451934814,12.4558782577515,12.4655275344849,12.4751901626587,12.4848690032959,12.4945621490479,12.5042705535889,12.5139942169189,12.5237331390381,12.533486366272,12.5432558059692,12.5530405044556,12.5628395080566,12.5726547241211,12.5824851989746,12.5923299789429,12.6021909713745,12.6120681762695,12.6219596862793,12.6318674087524,12.6417903900146,12.6517295837402,12.6616830825806,12.6716537475586,12.6816396713257,12.6916408538818,12.7016582489014,12.71169090271,12.7217397689819,12.7318048477173,12.7418851852417,12.7519826889038,12.762095451355,12.7722234725952,12.7823686599731,12.7925300598145,12.8027067184448,12.8129005432129,12.8231105804443,12.8333358764648,12.843578338623,12.8535804748535,12.8594675064087,12.8653602600098,12.8712577819824,12.877161026001,12.8830699920654,12.8889837265015,12.8949031829834,12.9008283615112,12.906759262085,12.9126949310303,12.9186363220215,12.9245834350586,13.0014791488647,13.0670070648193,13.0832090377808,13.0994510650635,13.1157341003418,13.1320571899414,13.1484212875366,13.1648263931274
8.69793796539307,8.69814872741699,8.6983585357666,8.69856929779053,8.69878005981445,8.69899082183838,8.6992015838623,8.69941234588623,8.69962215423584,8.69983291625977,8.70004367828369,8.70025444030762,8.70046520233154,8.70067596435547,8.70088672637939,8.70109748840332,8.70130825042725,8.70151901245117,8.7017297744751,8.70194053649902,8.70215129852295,8.70236206054688,8.7025728225708,8.70278358459473,8.70299434661865,8.70320510864258,8.70341682434082,8.70362758636475,8.70383834838867,8.7040491104126,8.70425987243652,8.70447063446045,8.70468139648438,8.70489311218262,8.70510387420654,8.70531368255615,8.70552444458008,8.705735206604,8.70594596862793,8.70615577697754,8.70636653900146,8.70657730102539,8.70678806304932,8.70699787139893,8.70720863342285,8.70741939544678,8.7076301574707,8.70784091949463,8.70805168151855,8.70826148986816,8.70847225189209,8.70868301391602,8.70889377593994,8.70910453796387,8.70931529998779,8.70952606201172,8.70973682403564,8.70994758605957,8.7101583480835,8.71036911010742,8.71057987213135,8.71078968048096,8.72821712493896,8.76116943359375,8.79437160491943,8.82782554626465,8.86153507232666,8.89550399780273,8.92973327636719,8.9642276763916,8.99898910522461,9.03402233123779,9.06932830810547,9.10491180419922,9.14077472686768,9.17692279815674,9.21335697174072,9.25008106231689,9.28709983825684,9.3244161605835,9.36203384399414,9.39995574951172,9.4381856918335,9.47672843933105,9.51558685302734,9.55476570129395,9.59426879882812,9.63409996032715,9.67426204681396,9.71476173400879,9.75559997558594,9.79678344726562,9.8383150100708,9.88020133972168,9.92244529724121,11.586009979248,11.5857772827148,11.5855445861816,11.5853118896484,11.5850791931152,11.5848474502563,11.5846147537231,11.5843820571899,11.5841493606567,11.5839166641235,11.5836839675903,11.5834522247314,11.5832195281982,11.582986831665,11.5827541351318,11.5825214385986,11.5822896957397,11.5820569992065,11.5818243026733,11.5815916061401,11.5813598632812,11.581127166748,11.5808944702148,11.580662727356,11.5804300308228,11.5801973342896,11.5799646377563,11.5797328948975,11.5795001983643,11.5792684555054,11.5790357589722,11.578803062439,11.5785713195801,11.5841665267944,11.6424074172974,11.7012376785278,11.7606658935547,11.8206996917725,11.8813505172729,11.9381971359253,11.9398422241211,11.9414873123169,11.9431324005127,11.9447784423828,11.9464254379272,11.9480714797974,11.9497194290161,11.9513673782349,11.9530153274536,11.9546642303467,11.9563131332397,11.9579629898071,11.9596128463745,11.9612627029419,11.9629144668579,11.9645652770996,11.9662170410156,11.967869758606,11.9695224761963,11.9711751937866,11.9728288650513,11.9744834899902,11.9761381149292,11.9777927398682,11.9794483184814,11.981104850769,11.9827613830566,11.9844179153442,11.9860754013062,11.9877328872681,11.9893913269043,11.9910497665405,11.9927091598511,11.9943685531616,11.9960289001465,11.9976892471313,11.9993505477905,12.0010118484497,12.0026741027832,12.0043363571167,12.0059995651245,12.0076627731323,12.0093259811401,12.0109901428223,12.0126552581787,12.0143203735352,12.0159864425659,12.0176525115967,12.0193185806274,12.0209856033325,12.0226535797119,12.0243215560913,12.0259895324707,12.0276584625244,12.0293273925781,12.0309972763062,12.0326681137085,12.0343379974365,12.0360097885132,12.0376815795898,12.0393533706665,12.0410261154175,12.0426988601685,12.0443725585938,12.046046257019,12.0477209091187,12.0493955612183,12.0510711669922,12.0527467727661,12.0544233322144,12.0560998916626,12.0577774047852,12.0594549179077,12.0611333847046,12.0628118515015,12.0644912719727,12.0661706924438,12.067850112915,12.0695314407349,12.0712118148804,12.0728931427002,12.0745754241943,12.0762577056885,12.0779409408569,12.0796241760254,12.0813074111938,12.0829916000366,12.0846767425537,12.0863618850708,12.0880470275879,12.0897340774536,12.091420173645,12.0931072235107,12.0947952270508,12.0964832305908,12.0981712341309,12.0998601913452,12.1015501022339,12.1032400131226,12.1049299240112,12.1066207885742,12.1083126068115,12.1100044250488,12.1116962432861,12.1133890151978,12.1150817871094,12.1167755126953,12.1184701919556,12.1201648712158,12.1218595504761,12.1235551834106,12.1252517700195,12.1269483566284,12.1286449432373,12.1303424835205,12.1320400238037,12.1337385177612,12.1354379653931,12.1371374130249,12.1388368606567,12.1405372619629,12.142237663269,12.1439390182495,12.1456413269043,12.1473436355591,12.1490459442139,12.150749206543,12.1524524688721,12.1541566848755,12.1558618545532,12.1608104705811,12.1700067520142,12.179217338562,12.1884422302246,12.1976804733276,12.2069330215454,12.2161989212036,12.2254800796509,12.2347745895386,12.244083404541,12.2534065246582,12.2627429962158,12.2720947265625,12.2814607620239,12.2908401489258,12.3002347946167,12.3096437454224,12.3190660476685,12.3285036087036,12.3379564285278,12.3474225997925,12.3569030761719,12.3663988113403,12.3759098052979,12.3854341506958,12.3949737548828,12.4045276641846,12.4140968322754,12.423680305481,12.4332790374756,12.4428930282593,12.4525213241577,12.4621639251709,12.4718227386475,12.4814958572388,12.4911832809448,12.5008869171143,12.5106048583984,12.5203380584717,12.5300874710083,12.5398511886597,12.5496301651001,12.5594244003296,12.5692338943481,12.5790586471558,12.5888986587524,12.5987548828125,12.6086254119873,12.6185121536255,12.6284141540527,12.638331413269,12.6482648849487,12.6582136154175,12.6681785583496,12.6781587600708,12.6881551742554,12.698166847229,12.7081937789917,12.7182378768921,12.7282972335815,12.7383718490601,12.748462677002,12.7585706710815,12.7686939239502,12.7788324356079,12.7889881134033,12.7991600036621,12.80934715271,12.8195514678955,12.8297719955444,12.8390674591064,12.8449411392212,12.8508195877075,12.8567047119141,12.8625946044922,12.8684902191162,12.8743906021118,12.8802967071533,12.8862085342407,12.8921251296997,12.8980474472046,12.9039754867554,12.9099092483521,12.9158477783203,12.9570217132568,13.0685300827026,13.0847358703613,13.1009826660156,13.1172695159912
8.63079166412354,8.63099956512451,8.63120651245117,8.63141345977783,8.63162136077881,8.63182926177979,8.63203620910645,8.63224315643311,8.63245105743408,8.63265895843506,8.63286590576172,8.63307285308838,8.63328075408936,8.63348865509033,8.63369560241699,8.63390350341797,8.63411045074463,8.63431835174561,8.63452529907227,8.63473320007324,8.63494110107422,8.63514804840088,8.63535594940186,8.63556385040283,8.63577079772949,8.63597869873047,8.63618659973145,8.63639354705811,8.63660144805908,8.63680934906006,8.63701725006104,8.6372241973877,8.63743209838867,8.63763999938965,8.63784790039062,8.63805484771729,8.63826274871826,8.63847064971924,8.6386775970459,8.63888454437256,8.63909244537354,8.6392993927002,8.63950634002686,8.63971424102783,8.63992118835449,8.64012908935547,8.64033603668213,8.64054393768311,8.64075088500977,8.64095783233643,8.6411657333374,8.64137268066406,8.64158058166504,8.6417875289917,8.64199542999268,8.64220237731934,8.64241027832031,8.64261722564697,8.64282512664795,8.64303302764893,8.66315078735352,8.69561290740967,8.7283182144165,8.76127147674561,8.79447364807129,8.82792854309082,8.86163997650146,8.89560890197754,8.92983913421631,8.96433448791504,8.99909687042236,9.03413009643555,9.06943702697754,9.10502147674561,9.1408863067627,9.17703437805176,9.21346950531006,9.25019454956055,9.2872142791748,9.32453155517578,9.36215019226074,9.40007305145264,9.43830394744873,9.47684764862061,9.51570796966553,9.55488681793213,9.59439086914062,9.63422298431396,9.67438697814941,9.71488666534424,9.7557258605957,9.79691028594971,9.83844375610352,9.88033103942871,9.92257595062256,11.586009979248,11.5857772827148,11.585545539856,11.5853128433228,11.5850801467896,11.5848474502563,11.5846147537231,11.5843820571899,11.5841493606567,11.5839176177979,11.5836849212646,11.5834522247314,11.5832195281982,11.582986831665,11.5827541351318,11.5825223922729,11.5822896957397,11.5820569992065,11.5818243026733,11.5815925598145,11.5813598632812,11.581127166748,11.5808954238892,11.580662727356,11.5804300308228,11.5801973342896,11.5799655914307,11.5797328948975,11.5795001983643,11.5792684555054,11.5790357589722,11.5788040161133,11.5785713195801,11.5843458175659,11.6425886154175,11.7014207839966,11.7608509063721,11.8208866119385,11.8815402984619,11.9337596893311,11.9354028701782,11.9370470046997,11.9386911392212,11.9403352737427,11.9419803619385,11.9436264038086,11.9452724456787,11.9469184875488,11.9485654830933,11.950213432312,11.9518613815308,11.9535093307495,11.9551582336426,11.95680809021,11.958456993103,11.9601078033447,11.9617586135864,11.9634094238281,11.9650611877441,11.9667129516602,11.9683656692505,11.9700183868408,11.9716711044312,11.9733257293701,11.9749794006348,11.9766340255737,11.978289604187,11.9799451828003,11.9816017150879,11.9832582473755,11.9849147796631,11.986572265625,11.9882307052612,11.9898891448975,11.9915475845337,11.9932069778442,11.9948663711548,11.9965267181396,11.9981880187988,11.9998483657837,12.0015106201172,12.0031728744507,12.0048351287842,12.006498336792,12.0081615447998,12.0098257064819,12.0114898681641,12.0131549835205,12.014820098877,12.0164852142334,12.0181522369385,12.0198183059692,12.0214853286743,12.0231533050537,12.0248212814331,12.0264902114868,12.0281591415405,12.0298280715942,12.0314979553223,12.0331687927246,12.034839630127,12.0365114212036,12.0381832122803,12.0398550033569,12.0415277481079,12.0432004928589,12.0448741912842,12.0465488433838,12.0482234954834,12.049898147583,12.0515737533569,12.0532493591309,12.0549259185791,12.0566034317017,12.0582799911499,12.0599584579468,12.0616369247437,12.0633153915405,12.0649948120117,12.0666742324829,12.0683546066284,12.0700349807739,12.0717163085938,12.0733976364136,12.0750799179077,12.0767621994019,12.0784454345703,12.0801286697388,12.0818128585815,12.0834970474243,12.0851821899414,12.0868673324585,12.0885534286499,12.0902395248413,12.091926574707,12.0936136245728,12.0953006744385,12.0969896316528,12.0986776351929,12.1003665924072,12.1020565032959,12.1037464141846,12.1054372787476,12.1071281433105,12.1088199615479,12.1105117797852,12.1122035980225,12.1138963699341,12.11559009552,12.117283821106,12.1189785003662,12.1206731796265,12.1223678588867,12.1240644454956,12.1257600784302,12.1274566650391,12.1291542053223,12.1308517456055,12.1325492858887,12.1342487335205,12.135947227478,12.1376466751099,12.139347076416,12.1410474777222,12.1427478790283,12.1444501876831,12.1461515426636,12.1478538513184,12.1495571136475,12.1512603759766,12.1529636383057,12.1546678543091,12.1563730239868,12.1580781936646,12.1668014526367,12.176007270813,12.185227394104,12.1944608688354,12.2037076950073,12.2129697799683,12.2222452163696,12.2315349578857,12.2408390045166,12.2501564025879,12.2594890594482,12.268835067749,12.2781963348389,12.2875709533691,12.2969608306885,12.3063640594482,12.3157825469971,12.3252143859863,12.3346614837646,12.3441228866577,12.3535985946655,12.3630895614624,12.372594833374,12.3821144104004,12.3916492462158,12.401198387146,12.4107618331909,12.4203405380249,12.4299335479736,12.4395418167114,12.4491653442383,12.4588031768799,12.4684562683105,12.478123664856,12.4878072738647,12.4975051879883,12.5072183609009,12.5169458389282,12.5266895294189,12.5364475250244,12.5462217330933,12.5560102462769,12.5658149719238,12.5756340026855,12.5854692459106,12.5953197479248,12.6051845550537,12.6150665283203,12.6249628067017,12.6348752975464,12.6448030471802,12.654746055603,12.6647052764893,12.6746797561646,12.6846704483032,12.6946773529053,12.7046985626221,12.7147369384766,12.7247905731201,12.7348604202271,12.744945526123,12.7550477981567,12.7651653289795,12.7752990722656,12.7854490280151,12.7956142425537,12.80579662323,12.8159952163696,12.8245859146118,12.8304471969604,12.8363132476807,12.8421840667725,12.8480606079102,12.8539428710938,12.8598299026489,12.86572265625,12.871621131897,12.8775243759155,12.88343334198,12.8893480300903,12.8952684402466,12.9011936187744,12.9071245193481,12.9130601882935,13.0246696472168
8.56467533111572,8.56487941741943,8.56508350372314,8.56528759002686,8.56549167633057,8.56569576263428,8.56589984893799,8.56610488891602,8.56630897521973,8.56651306152344,8.56671714782715,8.56692123413086,8.56712627410889,8.5673303604126,8.56753444671631,8.56773853302002,8.56794357299805,8.56814765930176,8.56835174560547,8.56855583190918,8.56876087188721,8.56896495819092,8.56916904449463,8.56937313079834,8.56957817077637,8.56978225708008,8.56998729705811,8.57019138336182,8.57039546966553,8.57060050964355,8.57080459594727,8.57100963592529,8.571213722229,8.57141780853271,8.57162284851074,8.57182693481445,8.57203197479248,8.57223606109619,8.57244110107422,8.57264518737793,8.57284927368164,8.57305335998535,8.57325744628906,8.57346153259277,8.57366561889648,8.57387065887451,8.57407474517822,8.57427883148193,8.57448291778564,8.57468700408936,8.57489109039307,8.57509517669678,8.57529926300049,8.57550430297852,8.57570838928223,8.57591247558594,8.57611656188965,8.57632064819336,8.59904766082764,8.63102912902832,8.66325092315674,8.69571304321289,8.72841930389404,8.76137351989746,8.79457664489746,8.82803249359131,8.86174392700195,8.89571380615234,8.92994499206543,8.96444129943848,8.99920463562012,9.03423881530762,9.06954669952393,9.10513210296631,9.1409969329834,9.17714595794678,9.21358203887939,9.2503080368042,9.28732872009277,9.32464694976807,9.36226654052734,9.40019035339355,9.43842220306396,9.47696685791016,9.51582813262939,9.55500888824463,9.59451293945312,9.63434600830078,9.67451095581055,9.71501159667969,9.75585174560547,9.79703712463379,9.83857154846191,9.88045978546143,9.92270565032959,11.5860109329224,11.5857782363892,11.585545539856,11.5853128433228,11.5850801467896,11.5848474502563,11.5846147537231,11.5843820571899,11.5841503143311,11.5839176177979,11.5836849212646,11.5834522247314,11.5832195281982,11.5829877853394,11.5827550888062,11.5825223922729,11.5822896957397,11.5820569992065,11.5818252563477,11.5815925598145,11.5813598632812,11.5811281204224,11.5808954238892,11.580662727356,11.5804300308228,11.5801982879639,11.5799655914307,11.5797328948975,11.5795011520386,11.5792684555054,11.5790367126465,11.5788040161133,11.5785713195801,11.5845251083374,11.6427698135376,11.7016038894653,11.7610349655151,11.8210763931274,11.8817348480225,11.9293241500854,11.9309663772583,11.9326095581055,11.9342517852783,11.9358959197998,11.9375400543213,11.9391841888428,11.9408292770386,11.9424743652344,11.9441204071045,11.9457664489746,11.9474124908447,11.9490604400635,11.9507074356079,11.9523553848267,11.9540042877197,11.9556531906128,11.9573020935059,11.9589519500732,11.9606027603149,11.9622535705566,11.9639043807983,11.9655561447144,11.9672088623047,11.9688606262207,11.9705142974854,11.97216796875,11.9738216400146,11.9754762649536,11.9771308898926,11.9787864685059,11.9804420471191,11.9820985794067,11.9837551116943,11.9854116439819,11.9870700836182,11.9887275695801,11.9903860092163,11.9920454025269,11.9937047958374,11.9953641891479,11.9970245361328,11.998685836792,12.0003471374512,12.0020084381104,12.0036706924438,12.0053339004517,12.0069971084595,12.0086603164673,12.0103244781494,12.0119886398315,12.013653755188,12.0153198242188,12.0169849395752,12.0186519622803,12.0203189849854,12.0219860076904,12.0236539840698,12.0253219604492,12.0269908905029,12.0286598205566,12.0303297042847,12.0319995880127,12.0336694717407,12.0353412628174,12.0370121002197,12.0386838912964,12.0403566360474,12.0420293807983,12.0437030792236,12.0453767776489,12.0470504760742,12.0487251281738,12.0504007339478,12.0520763397217,12.0537528991699,12.0554294586182,12.0571060180664,12.058783531189,12.0604619979858,12.0621404647827,12.0638189315796,12.0654983520508,12.067177772522,12.0688581466675,12.0705394744873,12.0722208023071,12.073902130127,12.0755844116211,12.0772666931152,12.0789499282837,12.0806341171265,12.0823183059692,12.084002494812,12.0856876373291,12.0873727798462,12.0890588760376,12.090744972229,12.0924320220947,12.0941200256348,12.0958070755005,12.0974960327148,12.0991840362549,12.1008739471436,12.1025638580322,12.1042537689209,12.1059446334839,12.1076354980469,12.1093273162842,12.1110191345215,12.1127119064331,12.1144046783447,12.1160984039307,12.1177921295166,12.1194868087769,12.1211814880371,12.1228771209717,12.1245727539062,12.1262693405151,12.127965927124,12.1296634674072,12.1313610076904,12.1330595016479,12.1347579956055,12.1364574432373,12.1381568908691,12.1398572921753,12.1415576934814,12.1432590484619,12.1449604034424,12.1466617584229,12.148365020752,12.1500673294067,12.1517715454102,12.1534748077393,12.155179977417,12.1568841934204,12.1585903167725,12.1635980606079,12.1727991104126,12.1820135116577,12.1912422180176,12.2004852294922,12.2097415924072,12.219012260437,12.2282972335815,12.2375955581665,12.2469091415405,12.256236076355,12.2655773162842,12.2749338150024,12.2843036651611,12.2936878204346,12.3030862808228,12.3125,12.3219270706177,12.3313694000244,12.3408250808716,12.3502960205078,12.3597822189331,12.3692817687988,12.3787965774536,12.3883256912231,12.3978700637817,12.4074287414551,12.4170017242432,12.4265899658203,12.4361934661865,12.4458112716675,12.4554443359375,12.4650917053223,12.4747543334961,12.484432220459,12.4941244125366,12.5038328170776,12.5135555267334,12.5232934951782,12.5330467224121,12.5428152084351,12.5525979995728,12.5623970031738,12.572211265564,12.5820407867432,12.5918855667114,12.6017465591431,12.6116218566895,12.6215133666992,12.631420135498,12.6413431167603,12.6512804031372,12.6612339019775,12.6712036132812,12.681188583374,12.6911897659302,12.7012062072754,12.7112379074097,12.7212867736816,12.7313508987427,12.7414302825928,12.7515268325806,12.7616386413574,12.7717666625977,12.7819108963013,12.7920713424683,12.8022480010986,12.8101387023926,12.8159856796265,12.8218383789062,12.8276958465576,12.8335599899292,12.8394289016724,12.8453025817871,12.8511819839478,12.8570671081543,12.8629570007324,12.8688526153564,12.8747539520264,12.8806600570679,12.8865728378296,12.8924894332886
