9.70646190643311,9.71102905273438,9.7518196105957,9.79295444488525,9.83443832397461,9.87627506256104,9.91846942901611,11.5910892486572,11.5908517837524,11.590615272522,11.5903778076172,11.5901412963867,11.5899038314819,11.5896673202515,11.589430809021,11.5891933441162,11.5889568328857,11.588719367981,11.5884828567505,11.58824634552,11.5880088806152,11.5877723693848,11.5875358581543,11.5872983932495,11.587061882019,11.5868253707886,11.5865879058838,11.5863513946533,11.5861148834229,11.5858774185181,11.5856409072876,11.5854043960571,11.5851678848267,11.5849313735962,11.5846939086914,11.5844573974609,11.5842208862305,11.583984375,11.5837469100952,11.5835103988647,11.5832738876343,11.6361379623413,11.6948852539062,11.7542295455933,11.8141794204712,11.8747434616089,11.9359312057495,11.9977531433105,12.0033473968506,12.0050039291382,12.0066614151001,12.0083179473877,12.0099763870239,12.0116348266602,12.0132932662964,12.0149526596069,12.0166120529175,12.0182723999023,12.0199327468872,12.0215940475464,12.0232553482056,12.0249176025391,12.0265798568726,12.0282421112061,12.0299053192139,12.031569480896,12.0332336425781,12.0348987579346,12.036563873291,12.0382289886475,12.0398950576782,12.0415620803833,12.0432291030884,12.0448961257935,12.0465641021729,12.0482330322266,12.0132398605347,12.0158023834229,12.0183658599854,12.0209302902222,12.0234966278076,12.0260629653931,12.0286312103271,12.0311994552612,12.0337696075439,12.036340713501,12.0389137268066,12.0414867401123,12.0440607070923,12.0466365814209,12.0492134094238,12.0517911911011,12.0543699264526,12.0569496154785,12.059531211853,12.0621128082275,12.0646963119507,12.0672807693481,12.0698661804199,12.072452545166,12.0750408172607,12.0776300430298,12.0802202224731,12.0828123092651,12.0854043960571,12.0879983901978,12.0905933380127,12.093189239502,12.0957860946655,12.0983839035034,12.1009836196899,12.1078319549561,12.1102895736694,12.1119756698608,12.1136627197266,12.1153497695923,12.117036819458,12.118724822998,12.1204137802124,12.1221027374268,12.1237916946411,12.1254816055298,12.1271724700928,12.1288633346558,12.1305541992188,12.1322460174561,12.1339378356934,12.135630607605,12.1373243331909,12.1390180587769,12.1407117843628,12.142406463623,12.1444034576416,12.15354347229,12.1626977920532,12.1718654632568,12.1810464859009,12.190242767334,12.1994514465332,12.2086744308472,12.2179117202759,12.2271633148193,12.2364282608032,12.2457075119019,12.2550010681152,12.2643089294434,12.2736301422119,12.2829656600952,12.2923164367676,12.3016805648804,12.3110589981079,12.3204517364502,12.3298587799072,12.3392810821533,12.3487167358398,12.3581666946411,12.3676319122314,12.3771114349365,12.3866052627563,12.3961143493652,12.4056367874146,12.4151744842529,12.4247274398804,12.4342947006226,12.4438762664795,12.4534730911255,12.4630842208862,12.472710609436,12.4823522567749,12.4920082092285,12.5016794204712,12.5113658905029,12.5210666656494,12.530782699585,12.5405139923096,12.5502605438232,12.560022354126,12.5697984695435,12.5795907974243,12.5893983840942,12.5992202758789,12.609058380127,12.6189117431641,12.6287803649902,12.6368989944458,12.6444683074951,12.6520462036133,12.6596326828003,12.6672286987305,12.6748342514038,12.682448387146,12.6900720596313,12.718297958374,12.7283229827881,12.7383632659912,12.7484197616577,12.7584924697876,12.7685804367065,12.7786846160889,12.7888050079346,12.7989416122437,12.8090934753418,12.8192625045776,12.8294467926025,12.8396482467651,12.8498649597168,12.8600988388062,12.8703479766846,12.8806142807007,12.8908967971802,12.8999357223511,12.9076499938965,12.9153728485107,12.9231061935425,12.9308481216431,12.9385986328125,12.9463586807251,12.9541282653809,12.9619073867798,12.9696960449219,12.9774932861328,12.9853010177612,12.9931173324585,13.0009431838989,13.0087785720825,13.0166234970093,13.0244770050049,13.032341003418,13.0402584075928,13.068660736084,13.097186088562,13.1258373260498,13.154613494873,13.1835165023804,13.2125463485718,13.2338905334473,13.2504453659058,13.2670412063599,13.2836790084839,13.3003587722778,13.3170804977417,13.3338441848755,13.3506498336792,13.3674974441528,13.384388923645,13.4013223648071,13.4182987213135,13.4353179931641,13.4523811340332,13.4694871902466,13.4866371154785,13.503830909729,13.5210676193237,13.5383491516113,13.5556755065918,13.5730447769165,13.5904598236084,13.6079187393188,13.6254234313965,13.642972946167,13.6605672836304,13.6782073974609,13.6958932876587,13.7136249542236,13.7314023971558,13.7492265701294,13.7670965194702,13.7850122451782,13.8029756546021,13.8209857940674,13.8390426635742,13.8571472167969,13.875298500061,13.8934984207153,13.9117450714111,13.9300403594971,13.9483842849731,13.966775894165,13.9852161407471,14.0037050247192,14.0222434997559,14.0408306121826,14.0594673156738,14.0781526565552,14.0968885421753,14.1156749725342,14.1345100402832,14.1533966064453,14.1723337173462,14.1913204193115,14.2103595733643,14.2294492721558,14.248589515686,14.2677822113037,14.2870264053345,14.3063230514526,14.3256711959839,14.3450717926025,14.3645257949829,14.3840322494507,14.4035911560059,14.4232034683228,14.4428701400757,14.462589263916,14.4823637008667,14.5021915435791,14.5220737457275,14.542010307312,14.5620021820068,14.5830392837524,14.6122074127197,14.6414909362793,14.6708927154541,14.7004137039185,14.730052947998,14.7598114013672,14.7896909713745,14.81969165802,14.849814414978,14.8800601959229,14.9104290008545,14.9409217834473,14.9715394973755,15.0022830963135,15.0331535339355,15.064151763916,15.0952768325806,15.1265316009521,15.1579160690308,15.1894302368164,15.221076965332,15.2528553009033,15.2847661972046,15.3168115615845,15.3489904403687,15.3813056945801,15.4137573242188,15.446346282959,15.4790725708008,15.5119390487671,15.6713037490845,15.7250909805298,15.7792482376099,15.8337802886963,15.8886909484863,15.9439830780029,15.9996614456177,16.0557308197021,16.1121921539307,16.1690540313721,16.226318359375,16.2839908599854,16.3420734405518
9.67069244384766,9.71114444732666,9.7519359588623,9.79307270050049,9.83455657958984,9.87639427185059,9.9185905456543,11.5910911560059,11.5908536911011,11.5906171798706,11.5903797149658,11.5901432037354,11.5899057388306,11.5896692276001,11.5894317626953,11.5891952514648,11.5889587402344,11.5887212753296,11.5884847640991,11.5882482528687,11.5880107879639,11.5877742767334,11.5875368118286,11.5873003005981,11.5870637893677,11.5868272781372,11.5865898132324,11.586353302002,11.5861167907715,11.5858793258667,11.5856428146362,11.5854063034058,11.5851697921753,11.5849323272705,11.58469581604,11.5844593048096,11.5842227935791,11.5839862823486,11.5837488174438,11.5835123062134,11.5832757949829,11.6363048553467,11.6950540542603,11.7544002532959,11.8143510818481,11.8749170303345,11.936107635498,11.9972095489502,11.9988651275635,12.0005197525024,12.0021753311157,12.0038318634033,12.0054883956909,12.0071449279785,12.0088024139404,12.0104608535767,12.0121192932129,12.0137777328491,12.0154371261597,12.0170974731445,12.0187578201294,12.0204181671143,12.0220794677734,12.0237407684326,12.0254030227661,12.0270652770996,12.0287284851074,12.0303916931152,12.0320558547974,12.0337200164795,12.0353851318359,12.0370502471924,12.0387163162231,12.0403823852539,12.042049407959,12.0437164306641,12.0453834533691,12.0470523834229,12.0487203598022,12.050389289856,12.052059173584,12.053729057312,12.05539894104,12.0414934158325,12.0440683364868,12.0466442108154,12.049220085144,12.0517978668213,12.0543775558472,12.056957244873,12.0595378875732,12.0621204376221,12.0647039413452,12.0672883987427,12.0698738098145,12.0724601745605,12.075047492981,12.07763671875,12.0802268981934,12.0828170776367,12.085410118103,12.0872249603271,12.0889043807983,12.0905847549438,12.0922651290894,12.0939464569092,12.095627784729,12.0973100662231,12.0989923477173,12.1006755828857,12.1023588180542,12.104043006897,12.1057271957397,12.1074113845825,12.1090974807739,12.110782623291,12.1124687194824,12.1141557693481,12.1158428192139,12.1175308227539,12.1192188262939,12.120906829834,12.1225967407227,12.124285697937,12.1259756088257,12.1276664733887,12.1293573379517,12.1310482025146,12.1327409744263,12.1344327926636,12.1361255645752,12.1378192901611,12.1395130157471,12.141206741333,12.1429014205933,12.1445970535278,12.1503248214722,12.1594734191895,12.1686363220215,12.1778135299683,12.1870040893555,12.1962080001831,12.2054271697998,12.2146587371826,12.2239055633545,12.2331657409668,12.2424402236938,12.2517280578613,12.2610311508179,12.2703475952148,12.2796783447266,12.289023399353,12.2983827590942,12.3077564239502,12.3171443939209,12.326545715332,12.3359622955322,12.3453931808472,12.3548393249512,12.3642988204956,12.3737726211548,12.383261680603,12.392765045166,12.4022836685181,12.4118156433105,12.4213628768921,12.4309253692627,12.440502166748,12.4500932693481,12.4596996307373,12.4693212509155,12.4789571762085,12.4886074066162,12.4982738494873,12.5079545974731,12.517650604248,12.5273609161377,12.5370874404907,12.5468282699585,12.5565843582153,12.5663557052612,12.5761423110962,12.5859441757202,12.5957612991333,12.6055936813354,12.6154413223267,12.6253051757812,12.6351833343506,12.6450777053833,12.6549873352051,12.6649122238159,12.6748533248901,12.6848096847534,12.6947822570801,12.7047700881958,12.7147731781006,12.7247924804688,12.734827041626,12.7448787689209,12.7549448013306,12.7650279998779,12.7751264572144,12.7852411270142,12.7953720092773,12.8055181503296,12.8156814575195,12.8258600234985,12.8360557556152,12.846266746521,12.8564939498901,12.866738319397,12.8769989013672,12.8872756958008,12.8975687026978,12.9078779220581,12.9182043075562,12.927038192749,12.9347848892212,12.9425401687622,12.9503059387207,12.958080291748,12.9658641815186,12.9736566543579,12.9814596176147,12.9892711639404,12.9970922470093,13.0049228668213,13.0127630233765,13.0206127166748,13.0386304855347,13.0670251846313,13.0955438613892,13.1241874694824,13.1529569625854,13.1695861816406,13.185980796814,13.2024154663086,13.2188911437988,13.235408782959,13.2519674301147,13.2685670852661,13.2852087020874,13.3018922805786,13.3186178207397,13.3353853225708,13.3521947860718,13.3690462112427,13.3859415054321,13.4028787612915,13.4198598861694,13.4368829727173,13.4539499282837,13.4710597991943,13.4882135391235,13.5054111480713,13.5226526260376,13.5399379730225,13.5572681427002,13.5746421813965,13.5920610427856,13.6095237731934,13.6270322799683,13.6445865631104,13.662184715271,13.6798295974731,13.6975193023682,13.7152547836304,13.7330369949341,13.750864982605,13.7687387466431,13.7866592407227,13.8046264648438,13.8226413726807,13.8407030105591,13.858811378479,13.8769674301147,13.8951711654663,13.9134225845337,13.9317226409912,13.9500703811646,13.968466758728,13.9869117736816,14.0054054260254,14.0239477157593,14.0425395965576,14.0611801147461,14.0798711776733,14.0986108779907,14.1174011230469,14.1362419128418,14.1551332473755,14.1740741729736,14.1930665969849,14.2121095657349,14.2312040328979,14.2503499984741,14.2695465087891,14.2887954711914,14.3080968856812,14.327449798584,14.3468561172485,14.3663139343262,14.3858251571655,14.4053897857666,14.4250068664551,14.4446783065796,14.4644031524658,14.4841814041138,14.5040140151978,14.5239019393921,14.5438432693481,14.5714950561523,14.6006164550781,14.6298542022705,14.6592092514038,14.6886825561523,14.7182741165161,14.7479858398438,14.7778167724609,14.8077697753906,14.8378438949585,14.8680400848389,14.8983602523804,14.9288034439087,14.9593725204468,14.990065574646,15.0208854675293,15.051833152771,15.0829076766968,15.1141109466553,15.1454439163208,15.1769065856934,15.2084999084473,15.2402257919312,15.272084236145,15.3040761947632,15.33620262146,15.3684635162354,15.400860786438,15.4333944320679,15.4660663604736,15.4988775253296,15.523904800415,15.5644884109497,15.6175441741943,15.6709623336792,15.7247467041016,15.778902053833,15.8334312438965,15.8883390426636,15.9436292648315,15.9993047714233,16.0553703308105
9.67080688476562,9.71125984191895,9.75205326080322,9.79319000244141,9.83467578887939,9.87651443481445,9.91871166229248,11.5910930633545,11.5908555984497,11.5906190872192,11.5903816223145,11.590145111084,11.5899076461792,11.5896711349487,11.5894336700439,11.5891971588135,11.588960647583,11.5887231826782,11.5884866714478,11.588249206543,11.5880126953125,11.587776184082,11.5875387191772,11.5873022079468,11.5870656967163,11.5868282318115,11.5865917205811,11.5863552093506,11.5861186981201,11.5858812332153,11.5856447219849,11.5854082107544,11.5851716995239,11.5849342346191,11.5846977233887,11.5844612121582,11.5842247009277,11.5839872360229,11.5837507247925,11.583514213562,11.5832777023315,11.6364717483521,11.6952238082886,11.7545709609985,11.8145236968994,11.8750915527344,11.9362831115723,11.9927320480347,11.9943857192993,11.996039390564,11.9976940155029,11.9993486404419,12.0010042190552,12.0026597976685,12.0043163299561,12.0059728622437,12.0076293945312,12.0092878341675,12.0109453201294,12.0126037597656,12.0142631530762,12.0159225463867,12.0175828933716,12.0192432403564,12.0209035873413,12.0225648880005,12.024227142334,12.0258893966675,12.027551651001,12.0292148590088,12.0308780670166,12.0325422286987,12.0342073440552,12.0358715057373,12.0375375747681,12.0392036437988,12.0408697128296,12.0425367355347,12.0442037582397,12.0458717346191,12.0475397109985,12.0492086410522,12.050877571106,12.052547454834,12.054217338562,12.05588722229,12.0575590133667,12.059229850769,12.0609016418457,12.0625743865967,12.0642471313477,12.0659208297729,12.0675945281982,12.0692682266235,12.0709428787231,12.0726184844971,12.074294090271,12.0759696960449,12.0776462554932,12.0793237686157,12.0810012817383,12.0826787948608,12.0843572616577,12.0860366821289,12.0877161026001,12.0893955230713,12.0910758972168,12.0927562713623,12.0944375991821,12.0961198806763,12.0978012084961,12.0994844436646,12.101167678833,12.1028509140015,12.1045351028442,12.106219291687,12.1079044342041,12.1095895767212,12.1112756729126,12.112961769104,12.1146488189697,12.1163358688354,12.1180238723755,12.1197118759155,12.1214008331299,12.1230897903442,12.1247797012329,12.1264696121216,12.1281604766846,12.1298513412476,12.1315431594849,12.1332349777222,12.1349277496338,12.1366205215454,12.1383142471313,12.1400079727173,12.1417026519775,12.1433973312378,12.1450929641724,12.1471071243286,12.1562519073486,12.1654100418091,12.17458152771,12.1837673187256,12.1929664611816,12.2021799087524,12.211407661438,12.220648765564,12.2299041748047,12.2391738891602,12.2484569549561,12.257755279541,12.2670660018921,12.2763919830322,12.2857322692871,12.2950868606567,12.3044548034668,12.3138380050659,12.3232345581055,12.3326463699341,12.3420724868774,12.3515129089355,12.3609666824341,12.370436668396,12.3799200057983,12.3894186019897,12.3989315032959,12.4084587097168,12.4180011749268,12.4275579452515,12.4371290206909,12.4467153549194,12.456316947937,12.4659328460693,12.4755630493164,12.4852085113525,12.4948692321777,12.504545211792,12.514235496521,12.5239410400391,12.5336618423462,12.5433979034424,12.5531482696533,12.5629148483276,12.5726957321167,12.5824918746948,12.5923042297363,12.6021308898926,12.6119737625122,12.6218309402466,12.6317043304443,12.6415929794312,12.6514978408813,12.6614170074463,12.6713523864746,12.681303024292,12.6912698745728,12.7012519836426,12.7112503051758,12.721263885498,12.7312936782837,12.7413387298584,12.7513999938965,12.7614765167236,12.7715702056885,12.7816791534424,12.7918043136597,12.801944732666,12.8121023178101,12.8222751617432,12.832465171814,12.8426704406738,12.8528928756714,12.863130569458,12.8733854293823,12.88365650177,12.8939437866211,12.9042472839355,12.9145669937134,12.9249038696289,12.9352569580078,12.9456272125244,12.9542551040649,12.9620342254639,12.9698219299316,12.9776201248169,12.9854278564453,12.9932441711426,13.001070022583,13.0089054107666,13.0370025634766,13.065390586853,13.0897083282471,13.1059036254883,13.1221399307251,13.1384153366089,13.1547327041626,13.1710891723633,13.1874876022339,13.2039260864258,13.2204055786133,13.2369270324707,13.2534894943237,13.2700929641724,13.2867383956909,13.3034257888794,13.3201551437378,13.3369264602661,13.3537397384644,13.3705959320068,13.3874950408936,13.4044361114502,13.4214200973511,13.4384479522705,13.4555187225342,13.4726333618164,13.4897909164429,13.5069923400879,13.5242376327515,13.5415267944336,13.5588607788086,13.5762395858765,13.5936622619629,13.6111297607422,13.6286420822144,13.6462001800537,13.6638031005859,13.6814517974854,13.6991453170776,13.7168855667114,13.7346715927124,13.7525033950806,13.7703819274902,13.7883071899414,13.8062791824341,13.8242969512939,13.8423633575439,13.8604764938354,13.8786373138428,13.8968448638916,13.9151010513306,13.9334049224854,13.9517574310303,13.970157623291,13.9886074066162,14.0071048736572,14.0256519317627,14.0442485809326,14.0628938674927,14.0815896987915,14.1003341674805,14.1191291809082,14.1379737854004,14.1568698883057,14.1758155822754,14.1948127746582,14.2138605117798,14.2329597473145,14.2521095275879,14.2713117599487,14.2905654907227,14.309871673584,14.3292293548584,14.3486394882202,14.3681030273438,14.3876190185547,14.4071884155273,14.4268102645874,14.4464864730835,14.4662160873413,14.4860000610352,14.5058374404907,14.5310096740723,14.5599689483643,14.5890436172485,14.6182355880737,14.6475439071655,14.6769695281982,14.7065143585205,14.7361783981323,14.765962600708,14.7958669662476,14.8258924484253,14.8560400009155,14.8863115310669,14.9167051315308,14.9472246170044,14.9778680801392,15.008638381958,15.0395345687866,15.0705585479736,15.101710319519,15.1329917907715,15.164402961731,15.1959447860718,15.2276182174683,15.2594232559204,15.2913618087769,15.3234348297119,15.3556423187256,15.3879852294922,15.4204654693604,15.4522542953491,15.478889465332,15.5056161880493,15.5182237625122,15.5300569534302,15.5419073104858,15.5641508102417,15.6172037124634,15.6706199645996,15.7244024276733,15.7785549163818
9.67092132568359,9.71137523651123,9.75216960906982,9.79330730438232,9.83479404449463,9.876633644104,9.91883277893066,11.5910940170288,11.5908575057983,11.5906200408936,11.5903835296631,11.5901470184326,11.5899095535278,11.5896730422974,11.5894355773926,11.5891990661621,11.5889616012573,11.5887250900269,11.5884885787964,11.5882511138916,11.5880146026611,11.5877780914307,11.5875406265259,11.5873041152954,11.5870676040649,11.5868301391602,11.5865936279297,11.5863571166992,11.5861196517944,11.585883140564,11.5856466293335,11.585410118103,11.5851726531982,11.5849361419678,11.5846996307373,11.5844631195068,11.5842266082764,11.5839891433716,11.5837526321411,11.5835161209106,11.5832796096802,11.6366395950317,11.6953926086426,11.7547416687012,11.8146963119507,11.87526512146,11.9364585876465,11.9882564544678,11.9899091720581,11.9915618896484,11.9932146072388,11.9948682785034,11.9965229034424,11.9981775283813,11.9998321533203,12.0014877319336,12.0031433105469,12.0047998428345,12.0064573287964,12.0081148147583,12.0097723007202,12.0114307403564,12.0130891799927,12.0147485733032,12.0164079666138,12.0180673599243,12.0197286605835,12.0213890075684,12.0230503082275,12.024712562561,12.0263748168945,12.0280380249023,12.0297012329102,12.031364440918,12.0330286026001,12.0346937179565,12.036358833313,12.0380239486694,12.0396900177002,12.0413570404053,12.0430240631104,12.0446910858154,12.0463590621948,12.0480270385742,12.0496959686279,12.051365852356,12.0530347824097,12.054705619812,12.0563764572144,12.0580472946167,12.0597190856934,12.06139087677,12.063063621521,12.064736366272,12.0664100646973,12.0680837631226,12.0697584152222,12.0714330673218,12.0731077194214,12.0747842788696,12.0764598846436,12.0781364440918,12.0798139572144,12.0814914703369,12.0831699371338,12.0848484039307,12.0865268707275,12.0882062911987,12.0898866653442,12.0915670394897,12.0932483673096,12.0949296951294,12.0966110229492,12.0982933044434,12.0999765396118,12.1016597747803,12.1033430099487,12.1050271987915,12.1067113876343,12.1083965301514,12.1100826263428,12.1117687225342,12.1134548187256,12.1151418685913,12.1168298721313,12.1185178756714,12.1202058792114,12.1218948364258,12.1235837936401,12.1252737045288,12.1269636154175,12.1286544799805,12.1303462982178,12.1320381164551,12.1337299346924,12.135422706604,12.1371154785156,12.1388092041016,12.1405029296875,12.1421976089478,12.143892288208,12.1455879211426,12.1472845077515,12.1530313491821,12.162184715271,12.1713514328003,12.1805324554443,12.1897268295288,12.198935508728,12.208158493042,12.2173948287964,12.2266445159912,12.2359094619751,12.2451877593994,12.2544803619385,12.2637872695923,12.2731075286865,12.2824430465698,12.2917919158936,12.3011560440063,12.3105335235596,12.3199253082275,12.3293323516846,12.338752746582,12.3481874465942,12.3576374053955,12.3671016693115,12.3765802383423,12.3860731124878,12.3955812454224,12.4051036834717,12.4146404266357,12.4241924285889,12.4337587356567,12.4433393478394,12.452935218811,12.4625463485718,12.4721717834473,12.4818115234375,12.4914674758911,12.5011377334595,12.5108232498169,12.5205230712891,12.5302381515503,12.5399684906006,12.5497140884399,12.5594749450684,12.5692510604858,12.5790424346924,12.5888481140137,12.5986700057983,12.6085071563721,12.6183595657349,12.6282272338867,12.638111114502,12.6480093002319,12.6579236984253,12.6678533554077,12.6777992248535,12.6877603530884,12.6977367401123,12.7077293395996,12.717737197876,12.7277612686157,12.7378005981445,12.7478561401367,12.7579278945923,12.7680149078369,12.7781190872192,12.7882385253906,12.7983732223511,12.8085250854492,12.8186922073364,12.8288764953613,12.8390760421753,12.849292755127,12.8595247268677,12.8697738647461,12.8800392150879,12.8903207778931,12.9006185531616,12.9109325408936,12.9212636947632,12.9316110610962,12.9419746398926,12.9523553848267,12.9627532958984,12.9731674194336,12.9815855026245,12.9893980026245,13.0071172714233,13.0267944335938,13.0428342819214,13.0589141845703,13.0750341415405,13.0911931991577,13.1073932647705,13.1236324310303,13.1399116516113,13.1562328338623,13.1725931167603,13.1889944076538,13.205436706543,13.2219209671021,13.2384452819824,13.2550115585327,13.2716188430786,13.2882690429688,13.3049592971802,13.3216924667358,13.3384675979614,13.3552856445312,13.372145652771,13.389048576355,13.4059934616089,13.422981262207,13.4400129318237,13.457088470459,13.4742059707642,13.4913682937622,13.5085735321045,13.5258235931396,13.543116569519,13.5604543685913,13.5778369903564,13.5952634811401,13.612735748291,13.6302518844604,13.6478137969971,13.6654214859009,13.6830739974976,13.7007722854614,13.7185163497925,13.7363061904907,13.7541427612305,13.7720251083374,13.7899551391602,13.8079309463501,13.8259544372559,13.8440237045288,13.8621416091919,13.8803062438965,13.8985185623169,13.9167795181274,13.9350881576538,13.953444480896,13.9718494415283,13.9903030395508,14.0088062286377,14.0273571014404,14.0459585189819,14.0646085739136,14.0833082199097,14.1020574569702,14.1208572387695,14.1397066116333,14.1586065292358,14.1775579452515,14.1965589523315,14.2156114578247,14.234715461731,14.253870010376,14.2730770111084,14.2923355102539,14.3116464614868,14.3310089111328,14.3504247665405,14.3698921203613,14.3894128799438,14.4089870452881,14.428614616394,14.4482955932617,14.4680299758911,14.4907484054565,14.5195465087891,14.5484609603882,14.5774898529053,14.606635093689,14.6358966827393,14.6652765274048,14.6947736740112,14.7243900299072,14.7541265487671,14.7839822769165,14.8139600753784,14.8440599441528,14.8742818832397,14.9046268463135,14.9350957870483,14.965690612793,14.996410369873,15.0272560119629,15.0582294464111,15.0893306732178,15.1205606460571,15.1519193649292,15.1834096908569,15.215030670166,15.2467832565308,15.2786693572998,15.3106889724731,15.3428430557251,15.3751316070557,15.4035797119141,15.4300479888916,15.4566059112549,15.4832563400269,15.5007410049438,15.5125465393066,15.5243711471558,15.5362138748169,15.5480737686157,15.5599527359009
9.67103576660156,9.71149158477783,9.75228595733643,9.79342460632324,9.83491230010986,9.87675380706787,9.91895389556885,11.5910959243774,11.590859413147,11.5906219482422,11.5903854370117,11.5901479721069,11.5899114608765,11.589674949646,11.5894374847412,11.5892009735107,11.588963508606,11.5887269973755,11.588490486145,11.5882530212402,11.5880165100098,11.5877799987793,11.5875425338745,11.587306022644,11.5870695114136,11.5868320465088,11.5865955352783,11.5863590240479,11.5861215591431,11.5858850479126,11.5856485366821,11.5854120254517,11.5851745605469,11.5849380493164,11.5847015380859,11.5844650268555,11.5842275619507,11.5839910507202,11.5837545394897,11.5835180282593,11.5832815170288,11.6368064880371,11.6955614089966,11.7549123764038,11.814868927002,11.8754396438599,11.936635017395,11.9837856292725,11.9854364395142,11.9870882034302,11.9887399673462,11.9903917312622,11.9920454025269,11.9936981201172,11.9953517913818,11.9970064163208,11.9986610412598,12.000316619873,12.0019721984863,12.0036277770996,12.0052843093872,12.0069417953491,12.008599281311,12.0102567672729,12.0119152069092,12.0135736465454,12.015233039856,12.0168933868408,12.0185527801514,12.0202140808105,12.0218744277954,12.0235366821289,12.0251989364624,12.0268611907959,12.0285234451294,12.0301876068115,12.0318508148193,12.0335159301758,12.0351800918579,12.0368452072144,12.0385112762451,12.0401773452759,12.041844367981,12.043511390686,12.0451784133911,12.0468463897705,12.0485153198242,12.0501842498779,12.0518531799316,12.0535230636597,12.055193901062,12.0568647384644,12.0585355758667,12.0602073669434,12.06187915802,12.063551902771,12.0652256011963,12.0668992996216,12.0685729980469,12.0702476501465,12.0719223022461,12.07359790802,12.0752735137939,12.0769500732422,12.0786266326904,12.080304145813,12.0819816589355,12.0836601257324,12.0853385925293,12.0870180130005,12.0886974334717,12.0903778076172,12.0920581817627,12.0937395095825,12.0954208374023,12.0971031188965,12.0987854003906,12.1004676818848,12.1021518707275,12.103835105896,12.1055192947388,12.1072044372559,12.1088895797729,12.1105756759644,12.1122617721558,12.1139478683472,12.1156349182129,12.1173229217529,12.119010925293,12.1206998825073,12.1223888397217,12.124077796936,12.1257677078247,12.1274585723877,12.1291494369507,12.1308403015137,12.132532119751,12.1342248916626,12.1359176635742,12.1376104354858,12.1393041610718,12.140998840332,12.1426935195923,12.1443881988525,12.1460838317871,12.147780418396,12.1498126983643,12.1589612960815,12.1681232452393,12.1772994995117,12.1864891052246,12.1956930160522,12.2049102783203,12.2141418457031,12.2233867645264,12.2326469421387,12.2419204711914,12.2512083053589,12.2605094909668,12.2698249816895,12.2791557312012,12.2884998321533,12.2978582382202,12.3072309494019,12.3166179656982,12.3260192871094,12.3354349136353,12.3448648452759,12.3543100357056,12.3637685775757,12.3732423782349,12.3827304840088,12.3922328948975,12.4017496109009,12.4112815856934,12.4208278656006,12.4303894042969,12.4399652481079,12.4495553970337,12.4591617584229,12.4687814712524,12.4784164428711,12.4880666732788,12.4977321624756,12.5074119567871,12.5171070098877,12.5268173217773,12.5365419387817,12.5462818145752,12.556037902832,12.5658082962036,12.5755939483643,12.585394859314,12.5952110290527,12.6050424575806,12.6148900985718,12.6247520446777,12.6346302032471,12.6445236206055,12.6544322967529,12.6643562316895,12.6742963790894,12.6842517852783,12.6942234039307,12.7042102813721,12.7142124176025,12.7242307662964,12.7342653274536,12.7443151473999,12.7543811798096,12.7644624710083,12.7745609283447,12.7846746444702,12.7948036193848,12.804949760437,12.8151121139526,12.8252897262573,12.8354835510254,12.8456945419312,12.855920791626,12.8661642074585,12.8764238357544,12.8866996765137,12.8969917297363,12.9072999954224,12.9176254272461,12.9279670715332,12.9383249282837,12.9486999511719,12.9590911865234,12.9694995880127,12.9789962768555,12.9962949752808,13.0122604370117,13.0282649993896,13.0443096160889,13.0603923797607,13.0765161514282,13.0926790237427,13.1088819503784,13.1251249313354,13.1414089202881,13.157732963562,13.1740970611572,13.190502166748,13.2069492340088,13.2234363555908,13.2399644851685,13.256534576416,13.2731456756592,13.2897987365723,13.3064937591553,13.3232307434082,13.3400106430054,13.3568315505981,13.3736953735352,13.3906021118164,13.4075508117676,13.4245433807373,13.4415788650513,13.4586572647095,13.4757795333862,13.4929456710815,13.5101556777954,13.5274085998535,13.5447063446045,13.562047958374,13.5794343948364,13.5968656539917,13.6143417358398,13.6318626403809,13.6494283676147,13.6670398712158,13.6846971511841,13.7023992538452,13.7201480865479,13.7379417419434,13.7557830810547,13.7736692428589,13.7916030883789,13.8095836639404,13.8276109695435,13.845685005188,13.8638067245483,13.8819761276245,13.9001932144165,13.9184579849243,13.9367704391479,13.9551315307617,13.9735412597656,13.9919996261597,14.0105066299438,14.0290632247925,14.0476684570312,14.0663232803345,14.0850267410278,14.1037817001343,14.1225852966309,14.1414394378662,14.1603441238403,14.1792993545532,14.1983060836792,14.2173633575439,14.2364711761475,14.2556314468384,14.2748432159424,14.2941064834595,14.3134212493896,14.3327894210815,14.3522090911865,14.3716821670532,14.3912076950073,14.4107866287231,14.4304189682007,14.4507093429565,14.4793491363525,14.5081024169922,14.5369710922241,14.565954208374,14.5950527191162,14.6242685317993,14.653600692749,14.6830520629883,14.7126207351685,14.7423095703125,14.7721176147461,14.8020477294922,14.8320980072021,14.8622713088989,14.8925676345825,14.9229879379272,14.9535322189331,14.9842014312744,15.0149974822998,15.0459203720093,15.0769710540771,15.1081495285034,15.1394577026367,15.1708955764771,15.2024641036987,15.2341642379761,15.2659978866577,15.2979640960693,15.3290004730225,15.3552112579346,15.3815126419067,15.407904624939,15.4343872070312,15.4609603881836,15.4832973480225,15.4950761795044,15.5068740844727,15.5186901092529
9.67115116119385,9.71160697937012,9.75240230560303,9.79354286193848,9.83503150939941,9.87687397003174,9.91907501220703,11.5910978317261,11.5908613204956,11.5906238555908,11.5903873443604,11.5901498794556,11.5899133682251,11.5896759033203,11.5894393920898,11.5892028808594,11.5889654159546,11.5887289047241,11.5884914398193,11.5882549285889,11.5880184173584,11.5877809524536,11.5875444412231,11.5873079299927,11.5870704650879,11.5868339538574,11.586597442627,11.5863609313965,11.5861234664917,11.5858869552612,11.5856504440308,11.585412979126,11.5851764678955,11.584939956665,11.5847034454346,11.5844669342041,11.5842294692993,11.5839929580688,11.5837564468384,11.5835199356079,11.5832824707031,11.6369733810425,11.6957302093506,11.7550830841064,11.8150405883789,11.8756141662598,11.9368104934692,11.9793167114258,11.9809665679932,11.9826173782349,11.9842681884766,11.9859189987183,11.9875707626343,11.9892225265503,11.9908752441406,11.992527961731,11.9941816329956,11.9958353042603,11.9974899291992,11.9991445541382,12.0008001327515,12.0024557113647,12.0041122436523,12.0057687759399,12.0074262619019,12.0090837478638,12.0107412338257,12.0123996734619,12.0140590667725,12.015718460083,12.0173778533936,12.0190382003784,12.0206995010376,12.0223608016968,12.024022102356,12.0256843566895,12.0273466110229,12.0290098190308,12.0306739807129,12.0323371887207,12.0340023040771,12.0356674194336,12.03733253479,12.0389986038208,12.0406646728516,12.0423316955566,12.0439987182617,12.0456657409668,12.0473346710205,12.0490026473999,12.0506715774536,12.0523414611816,12.0540113449097,12.055682182312,12.0573530197144,12.059024810791,12.0606966018677,12.0623683929443,12.0640411376953,12.0657148361206,12.0673885345459,12.0690622329712,12.0707368850708,12.0724124908447,12.0740880966187,12.0757637023926,12.0774402618408,12.0791168212891,12.0807943344116,12.0824728012085,12.0841512680054,12.0858297348022,12.0875091552734,12.0891885757446,12.0908689498901,12.0925493240356,12.0942306518555,12.0959129333496,12.0975942611694,12.0992774963379,12.100959777832,12.1026439666748,12.1043272018433,12.1060123443604,12.1076965332031,12.1093826293945,12.1110677719116,12.1127548217773,12.1144409179688,12.1161289215088,12.1178159713745,12.1195039749146,12.1211929321289,12.1228818893433,12.1245718002319,12.1262617111206,12.1279525756836,12.1296434402466,12.1313352584839,12.1330270767212,12.1347198486328,12.1364126205444,12.1381053924561,12.139799118042,12.1414937973022,12.1431884765625,12.1448841094971,12.1465797424316,12.1482763290405,12.1499729156494,12.1557397842407,12.1648969650269,12.1740674972534,12.1832523345947,12.1924514770508,12.2016639709473,12.2108907699585,12.2201309204102,12.2293853759766,12.2386541366577,12.2479372024536,12.2572336196899,12.266544342041,12.2758693695068,12.2852087020874,12.2945623397827,12.3039302825928,12.3133115768433,12.3227081298828,12.3321189880371,12.3415441513062,12.3509836196899,12.3604373931885,12.3699054718018,12.3793888092041,12.3888864517212,12.398398399353,12.4079246520996,12.4174661636353,12.4270219802856,12.4365930557251,12.4461784362793,12.4557781219482,12.4653940200806,12.4750232696533,12.4846687316895,12.4943284988403,12.504002571106,12.513692855835,12.5233974456787,12.5331172943115,12.5428524017334,12.55260181427,12.56236743927,12.5721473693848,12.5819435119629,12.5917539596558,12.601580619812,12.611421585083,12.6212787628174,12.6311511993408,12.6410388946533,12.6509428024292,12.6608610153198,12.6707954406738,12.6807460784912,12.6907119750977,12.7006931304932,12.7106895446777,12.720703125,12.730731010437,12.7407760620117,12.7508363723755,12.7609119415283,12.7710046768188,12.7811126708984,12.7912368774414,12.8013763427734,12.8115329742432,12.8217058181763,12.8318939208984,12.842098236084,12.8523197174072,12.8625564575195,12.8728103637695,12.8830804824829,12.8933668136597,12.9036693572998,12.9139890670776,12.9243249893188,12.9346771240234,12.9450464248657,12.9554319381714,12.964207649231,12.9701747894287,12.9768447875977,13.0137281417847,13.0297365188599,13.045783996582,13.0618715286255,13.0779981613159,13.0941648483276,13.1103706359863,13.1266183853149,13.1429052352905,13.1592330932617,13.1756010055542,13.1920108795166,13.2084608078003,13.2249517440796,13.2414846420288,13.2580575942993,13.2746734619141,13.2913303375244,13.3080291748047,13.3247690200806,13.341552734375,13.358377456665,13.3752460479736,13.3921566009521,13.4091091156006,13.4261054992676,13.4431447982788,13.4602279663086,13.4773540496826,13.4945240020752,13.511736869812,13.5289945602417,13.5462970733643,13.5636425018311,13.5810327529907,13.5984678268433,13.6159477233887,13.6334733963013,13.6510429382324,13.6686592102051,13.6863203048706,13.704026222229,13.7217788696289,13.7395782470703,13.7574224472046,13.7753143310547,13.793251991272,13.8112363815308,13.8292684555054,13.8473472595215,13.8654727935791,13.8836469650269,13.9018678665161,13.9201374053955,13.9384546279907,13.9568204879761,13.9752340316772,13.9936962127686,14.0122079849243,14.0307693481445,14.0493783950806,14.0680379867554,14.0867462158203,14.105504989624,14.1243143081665,14.1431732177734,14.1620826721191,14.1810426712036,14.2000532150269,14.2191152572632,14.2382278442383,14.2573928833008,14.2766094207764,14.295877456665,14.3151969909668,14.3345699310303,14.3539943695068,14.3734722137451,14.3930034637451,14.4125871658325,14.4393730163574,14.4679679870605,14.4966764450073,14.5254993438721,14.5544366836548,14.5834894180298,14.6126585006714,14.6419448852539,14.6713485717773,14.700870513916,14.7305116653442,14.760272026062,14.790153503418,14.8201560974121,14.8502807617188,14.8805274963379,14.9108982086182,14.9413938522339,14.9720134735107,15.0027589797974,15.0336313247681,15.0646314620972,15.0957584381104,15.1270151138306,15.1584014892578,15.1899185180664,15.2215662002563,15.2533464431763,15.2810983657837,15.3071460723877,15.3332824707031,15.3595094680786,15.3858251571655,15.4122314453125,15.4387292861938,15.4653177261353,15.4776458740234
9.67126560211182,9.7117223739624,9.75251960754395,9.79366016387939,9.83514976501465,9.87699413299561,9.91919612884521,11.5910997390747,11.5908632278442,11.5906257629395,11.590389251709,11.5901517868042,11.5899152755737,11.5896778106689,11.5894412994385,11.589204788208,11.5889673233032,11.5887308120728,11.588493347168,11.5882568359375,11.588020324707,11.5877828598022,11.5875463485718,11.5873098373413,11.5870723724365,11.5868358612061,11.5865993499756,11.5863618850708,11.5861253738403,11.5858888626099,11.5856523513794,11.5854148864746,11.5851783752441,11.5849418640137,11.5847053527832,11.5844678878784,11.5842313766479,11.5839948654175,11.583758354187,11.5835218429565,11.5832843780518,11.6371412277222,11.6958990097046,11.7552537918091,11.8152132034302,11.8757877349854,11.9369869232178,11.9748516082764,11.9765005111694,11.9781494140625,11.9797992706299,11.9814491271973,11.983099937439,11.9847507476807,11.9864015579224,11.9880533218384,11.9897060394287,11.991358757019,11.9930114746094,11.994665145874,11.9963188171387,11.9979734420776,11.9996290206909,12.0012836456299,12.0029401779175,12.0045967102051,12.0062532424927,12.0079107284546,12.0095682144165,12.0112266540527,12.012885093689,12.0145435333252,12.0162038803101,12.0178632736206,12.0195236206055,12.0211849212646,12.0228462219238,12.0245084762573,12.0261707305908,12.0278329849243,12.0294961929321,12.0311603546143,12.0328245162964,12.0344886779785,12.036153793335,12.0378189086914,12.0394849777222,12.0411520004272,12.0428190231323,12.0444860458374,12.0461540222168,12.0478219985962,12.0494909286499,12.0511598587036,12.0528297424316,12.0544996261597,12.056170463562,12.0578413009644,12.059513092041,12.0611848831177,12.0628576278687,12.0645303726196,12.0662040710449,12.0678777694702,12.0695514678955,12.0712270736694,12.072901725769,12.074577331543,12.0762538909912,12.0779304504395,12.0796070098877,12.0812854766846,12.0829629898071,12.084641456604,12.0863208770752,12.0880002975464,12.0896797180176,12.0913600921631,12.0930414199829,12.0947227478027,12.0964040756226,12.0980863571167,12.0997686386108,12.1014518737793,12.1031360626221,12.1048202514648,12.1065044403076,12.1081895828247,12.1098747253418,12.1115608215332,12.1132478713989,12.1149339675903,12.1166219711304,12.1183099746704,12.1199979782104,12.1216869354248,12.1233758926392,12.1250658035278,12.1267557144165,12.1284465789795,12.1301374435425,12.1318292617798,12.1335220336914,12.1352138519287,12.1369075775146,12.1386003494263,12.1402950286865,12.1419887542725,12.143684387207,12.1453800201416,12.1470756530762,12.1487722396851,12.1504688262939,12.1525192260742,12.1616716384888,12.1708374023438,12.1800174713135,12.1892118453979,12.1984195709229,12.2076416015625,12.2168769836426,12.2261266708374,12.235390663147,12.244668006897,12.2539596557617,12.2632656097412,12.2725858688354,12.2819194793701,12.2912683486938,12.300630569458,12.3100080490112,12.3193988800049,12.3288049697876,12.3382244110107,12.3476591110229,12.3571081161499,12.3665714263916,12.376049041748,12.3855409622192,12.3950481414795,12.4045696258545,12.4141063690186,12.423656463623,12.4332218170166,12.4428024291992,12.4523973464966,12.462007522583,12.4716320037842,12.4812717437744,12.4909257888794,12.5005960464478,12.5102796554565,12.5199794769287,12.5296936035156,12.5394239425659,12.549168586731,12.5589284896851,12.5687026977539,12.5784931182861,12.5882987976074,12.5981197357178,12.6079559326172,12.6178073883057,12.6276741027832,12.6375570297241,12.6474542617798,12.6573677062988,12.6672973632812,12.6772413253784,12.687201499939,12.6971778869629,12.7071695327759,12.7171764373779,12.7271995544434,12.7372379302979,12.74729347229,12.757363319397,12.7674503326416,12.7775526046753,12.7876710891724,12.7978057861328,12.8079557418823,12.8181228637695,12.8283052444458,12.8385047912598,12.8487195968628,12.8589515686035,12.8691997528076,12.8794631958008,12.8897438049316,12.9000415802002,12.9103546142578,12.9206848144531,12.9310312271118,12.9413938522339,12.9494524002075,12.9554061889648,12.9613656997681,12.9673299789429,13.0151958465576,13.0312080383301,13.0472583770752,13.0633497238159,13.0794801712036,13.0956506729126,13.1118612289429,13.1281118392944,13.1444025039673,13.1607341766357,13.1771059036255,13.1935195922852,13.2099723815918,13.2264680862427,13.2430038452148,13.2595815658569,13.2762002944946,13.2928609848022,13.3095636367798,13.3263082504272,13.3430957794189,13.3599243164062,13.3767957687378,13.3937110900879,13.4106674194336,13.4276685714722,13.4447116851807,13.4617986679077,13.478928565979,13.4961023330688,13.5133199691772,13.5305814743042,13.5478868484497,13.5652370452881,13.5826320648193,13.6000709533691,13.6175556182861,13.6350841522217,13.6526584625244,13.6702785491943,13.6879434585571,13.7056541442871,13.7234115600586,13.7412137985229,13.7590627670288,13.7769584655762,13.794900894165,13.8128900527954,13.8309259414673,13.8490085601807,13.8671398162842,13.8853178024292,13.90354347229,13.9218168258667,13.9401388168335,13.9585084915161,13.9769268035889,13.9953937530518,14.0139102935791,14.0324754714966,14.0510892868042,14.0697536468506,14.0884666442871,14.1072301864624,14.1260433197021,14.1449069976807,14.1638212203979,14.1827850341797,14.2018013000488,14.2208681106567,14.2399854660034,14.2591543197632,14.2783756256104,14.2976484298706,14.3169736862183,14.336350440979,14.3557806015015,14.3752632141113,14.3996171951294,14.4280548095703,14.4566049575806,14.4852676391602,14.5140447616577,14.5429372787476,14.5719442367554,14.6010665893555,14.6303062438965,14.6596632003784,14.6891384124756,14.718731880188,14.7484455108643,14.7782793045044,14.8082332611084,14.8383092880249,14.8685073852539,14.898829460144,14.929274559021,14.9598455429077,14.9905405044556,15.0213623046875,15.0523118972778,15.0833883285522,15.1145935058594,15.1459283828735,15.1773929595947,15.2076969146729,15.233494758606,15.2593803405762,15.2853546142578,15.3114166259766,15.3375682830811,15.363808631897,15.3901395797729,15.416561126709
9.67138004302979,9.71183776855469,9.75263595581055,9.79377746582031,9.8352689743042,9.87711429595947,9.9193172454834,11.5911016464233,11.5908651351929,11.5906276702881,11.5903911590576,11.5901536941528,11.5899171829224,11.5896797180176,11.5894432067871,11.5892057418823,11.5889692306519,11.5887327194214,11.5884952545166,11.5882587432861,11.5880222320557,11.5877847671509,11.5875482559204,11.5873117446899,11.5870742797852,11.5868377685547,11.5866012573242,11.5863637924194,11.586127281189,11.5858907699585,11.585654258728,11.5854167938232,11.5851802825928,11.5849437713623,11.5847072601318,11.5844697952271,11.5842332839966,11.5839967727661,11.5837602615356,11.5835237503052,11.5832862854004,11.6373081207275,11.6960678100586,11.7554235458374,11.8153858184814,11.8759622573853,11.937162399292,11.9703903198242,11.972038269043,11.9736852645874,11.9753341674805,11.9769830703735,11.9786319732666,11.980281829834,11.9819316864014,11.9835824966431,11.9852333068848,11.9868841171265,11.9885368347168,11.9901885986328,11.9918413162231,11.9934949874878,11.9951486587524,11.9968023300171,11.9984579086304,12.0001125335693,12.0017681121826,12.0034236907959,12.0050802230835,12.0067377090454,12.0083951950073,12.0100526809692,12.0117111206055,12.0133695602417,12.0150289535522,12.0166883468628,12.0183486938477,12.0200090408325,12.0216703414917,12.0233316421509,12.0249938964844,12.0266561508179,12.0283193588257,12.0299825668335,12.0316467285156,12.0333108901978,12.0349750518799,12.0366401672363,12.0383062362671,12.0399723052979,12.0416393280029,12.043306350708,12.0449733734131,12.0466413497925,12.0483102798462,12.0499782562256,12.0516481399536,12.0533180236816,12.0549879074097,12.056658744812,12.0583295822144,12.060001373291,12.061674118042,12.063346862793,12.0650196075439,12.0666933059692,12.0683670043945,12.0700416564941,12.0717163085938,12.0733919143677,12.0750675201416,12.0767440795898,12.0784206390381,12.0800981521606,12.0817756652832,12.0834541320801,12.085132598877,12.0868110656738,12.0884914398193,12.0901708602905,12.091851234436,12.0935325622559,12.0952138900757,12.0968961715698,12.098578453064,12.1002607345581,12.1019439697266,12.1036281585693,12.1053123474121,12.1069974899292,12.1086826324463,12.1103677749634,12.1120538711548,12.1137409210205,12.1154279708862,12.117115020752,12.118803024292,12.1204919815063,12.1221809387207,12.1238698959351,12.1255598068237,12.1272506713867,12.1289405822754,12.1306324005127,12.13232421875,12.1340160369873,12.1357088088989,12.1374025344849,12.1390962600708,12.1407899856567,12.142484664917,12.1441793441772,12.1458749771118,12.1475715637207,12.1492681503296,12.1509647369385,12.1526622772217,12.1584482192993,12.167610168457,12.1767845153809,12.1859741210938,12.1951770782471,12.2043933868408,12.2136240005493,12.2228689193726,12.2321281433105,12.241400718689,12.2506875991821,12.25998878479,12.2693033218384,12.2786331176758,12.2879762649536,12.2973337173462,12.3067054748535,12.3160915374756,12.3254928588867,12.3349075317383,12.3443365097046,12.35378074646,12.3632383346558,12.3727111816406,12.3821983337402,12.3916997909546,12.401216506958,12.4107475280762,12.4202928543091,12.4298534393311,12.4394283294678,12.4490184783936,12.4586229324341,12.4682426452637,12.477876663208,12.4875259399414,12.4971904754639,12.5068693161011,12.5165634155273,12.5262727737427,12.5359973907471,12.5457363128662,12.5554904937744,12.565260887146,12.5750455856323,12.5848455429077,12.5946607589722,12.6044921875,12.6143379211426,12.6241998672485,12.6340761184692,12.6439685821533,12.6538772583008,12.663800239563,12.6737394332886,12.6836938858032,12.6936645507812,12.7036504745483,12.7136516571045,12.7236700057983,12.7337026596069,12.7437515258789,12.7538166046143,12.763897895813,12.7739944458008,12.784107208252,12.7942361831665,12.8043813705444,12.8145427703857,12.8247194290161,12.8349132537842,12.8451223373413,12.8553485870361,12.86559009552,12.8758487701416,12.8861236572266,12.8964147567749,12.9067220687866,12.917046546936,12.9273872375488,12.9347305297852,12.9406709671021,12.9466161727905,12.9525680541992,12.9585247039795,12.9989356994629,13.0326795578003,13.048734664917,13.0648288726807,13.0809631347656,13.0971374511719,13.1133508682251,13.1296052932739,13.1459007263184,13.1622352600098,13.1786117553711,13.1950273513794,13.2114849090576,13.2279844284058,13.2445240020752,13.2611045837402,13.2777280807495,13.2943925857544,13.3110990524292,13.3278474807739,13.3446388244629,13.3614711761475,13.3783473968506,13.3952655792236,13.4122266769409,13.4292306900024,13.4462776184082,13.4633684158325,13.4805030822754,13.4976806640625,13.5149030685425,13.5321683883667,13.5494775772095,13.5668325424194,13.5842313766479,13.601674079895,13.6191625595093,13.6366958618164,13.6542739868164,13.6718978881836,13.689567565918,13.7072820663452,13.725043296814,13.7428503036499,13.7607040405273,13.778603553772,13.7965507507324,13.8145437240601,13.8325843811035,13.8506717681885,13.8688058853149,13.8869886398315,13.905219078064,13.9234972000122,13.9418230056763,13.9601974487305,13.9786205291748,13.9970922470093,14.0156126022339,14.0341815948486,14.0528011322021,14.0714693069458,14.0901870727539,14.1089553833008,14.1277732849121,14.1466407775879,14.1655597686768,14.1845293045044,14.2035493850708,14.2226209640503,14.2417430877686,14.2609167098999,14.2801427841187,14.2994203567505,14.3187503814697,14.3381328582764,14.3600797653198,14.3883609771729,14.4167537689209,14.4452590942383,14.4738779067993,14.5026092529297,14.5314559936523,14.560417175293,14.5894937515259,14.6186866760254,14.6479969024658,14.6774253845215,14.7069721221924,14.7366371154785,14.7664232254028,14.796329498291,14.8263568878174,14.8565073013306,14.8867797851562,14.9171762466431,14.947696685791,14.9783420562744,15.0091142654419,15.0400123596191,15.0710382461548,15.1021928787231,15.1334762573242,15.1605491638184,15.1861867904663,15.2119121551514,15.2377243041992,15.2636241912842,15.2896127700806,15.3156900405884,15.3418560028076
9.67149448394775,9.71195411682129,9.75275230407715,9.79389572143555,9.83538818359375,9.87723445892334,9.91943836212158,11.591103553772,11.5908660888672,11.5906295776367,11.5903930664062,11.5901556015015,11.589919090271,11.5896816253662,11.5894451141357,11.589207649231,11.5889711380005,11.58873462677,11.5884971618652,11.5882606506348,11.58802318573,11.5877866744995,11.587550163269,11.5873126983643,11.5870761871338,11.5868396759033,11.5866031646729,11.5863656997681,11.5861291885376,11.5858926773071,11.5856552124023,11.5854187011719,11.5851821899414,11.5849456787109,11.5847082138062,11.5844717025757,11.5842351913452,11.5839986801147,11.5837621688843,11.5835256576538,11.583288192749,11.6374750137329,11.6962366104126,11.75559425354,11.8155574798584,11.8761358261108,11.9373388290405,11.965931892395,11.9675779342651,11.9692249298096,11.970871925354,11.9725198745728,11.9741678237915,11.9758157730103,11.9774646759033,11.9791135787964,11.9807634353638,11.9824142456055,11.9840650558472,11.9857158660889,11.9873676300049,11.9890193939209,11.9906721115112,11.9923248291016,11.9939785003662,11.9956321716309,11.9972867965698,11.9989414215088,12.0005960464478,12.0022525787354,12.0039081573486,12.0055646896362,12.0072221755981,12.0088796615601,12.010537147522,12.0121955871582,12.0138549804688,12.0155143737793,12.0171737670898,12.0188341140747,12.0204944610596,12.0221557617188,12.0238180160522,12.0254802703857,12.0271425247192,12.0288057327271,12.0304689407349,12.032133102417,12.0337972640991,12.0354623794556,12.037127494812,12.0387935638428,12.0404596328735,12.0421257019043,12.0437936782837,12.0454607009888,12.0471286773682,12.0487976074219,12.0504665374756,12.0521364212036,12.0538063049316,12.0554761886597,12.057147026062,12.0588188171387,12.0604906082153,12.062162399292,12.063835144043,12.0655088424683,12.0671825408936,12.0688562393188,12.0705308914185,12.0722055435181,12.073881149292,12.0755577087402,12.0772342681885,12.0789108276367,12.0805883407593,12.0822658538818,12.0839443206787,12.0856227874756,12.0873022079468,12.088981628418,12.0906620025635,12.092342376709,12.0940237045288,12.0957050323486,12.0973873138428,12.0990695953369,12.1007528305054,12.1024360656738,12.1041202545166,12.1058044433594,12.1074895858765,12.1091747283936,12.110860824585,12.1125469207764,12.1142339706421,12.1159210205078,12.1176080703735,12.1192970275879,12.1209850311279,12.1226739883423,12.124363899231,12.1260538101196,12.1277446746826,12.1294355392456,12.1311264038086,12.1328191757202,12.1345109939575,12.1362037658691,12.1378974914551,12.139591217041,12.141284942627,12.1429796218872,12.1446752548218,12.1463708877563,12.1480674743652,12.1497640609741,12.151460647583,12.1531581878662,12.1552267074585,12.1643838882446,12.1735534667969,12.1827383041382,12.1919355392456,12.2011480331421,12.210373878479,12.2196130752563,12.2288675308228,12.2381353378296,12.2474164962769,12.2567129135132,12.2660226821899,12.2753467559814,12.2846851348877,12.2940378189087,12.3034048080444,12.3127861022949,12.3221817016602,12.3315916061401,12.3410158157349,12.3504543304443,12.3599071502686,12.3693752288818,12.3788576126099,12.3883543014526,12.3978652954102,12.4073905944824,12.4169311523438,12.4264869689941,12.436056137085,12.4456415176392,12.4552402496338,12.4648551940918,12.4744834899902,12.4841279983521,12.4937868118286,12.5034608840942,12.5131492614746,12.5228538513184,12.5325727462769,12.5423059463501,12.5520553588867,12.5618200302124,12.5715999603271,12.5813941955566,12.5912046432495,12.6010293960571,12.6108703613281,12.6207265853882,12.6305980682373,12.6404848098755,12.6503877639771,12.6603059768677,12.6702394485474,12.6801881790161,12.6901531219482,12.7001333236694,12.710129737854,12.7201414108276,12.7301692962646,12.7402124404907,12.7502717971802,12.760347366333,12.7704391479492,12.7805461883545,12.7906694412231,12.8008089065552,12.8109636306763,12.8211355209351,12.8313226699829,12.8415269851685,12.8517465591431,12.8619832992554,12.8722362518311,12.8825054168701,12.8927907943726,12.9030923843384,12.9134101867676,12.9200420379639,12.9259691238403,12.9319009780884,12.9378385543823,12.9437818527222,12.9497308731079,12.9556846618652,13.0341520309448,13.0502109527588,13.0663089752197,13.0824460983276,13.0986242294312,13.1148414611816,13.1310997009277,13.1473979949951,13.1637372970581,13.1801166534424,13.1965370178223,13.2129983901978,13.2295007705688,13.2460441589355,13.2626295089722,13.2792558670044,13.2959251403809,13.3126354217529,13.3293876647949,13.3461818695068,13.363018989563,13.3798990249634,13.3968210220337,13.4137859344482,13.430793762207,13.4478454589844,13.464940071106,13.4820785522461,13.4992599487305,13.5164852142334,13.5337553024292,13.5510692596436,13.5684280395508,13.5858306884766,13.6032781600952,13.6207704544067,13.6383075714111,13.6558904647827,13.6735181808472,13.6911916732788,13.7089109420776,13.7266759872437,13.7444877624512,13.7623453140259,13.7802495956421,13.7982006072998,13.816198348999,13.8342428207397,13.852334022522,13.8704738616943,13.8886604309082,13.9068946838379,13.9251766204834,13.943507194519,13.9618864059448,13.9803142547607,13.9987897872925,14.0173149108887,14.035888671875,14.0545129776001,14.0731859207153,14.091908454895,14.1106805801392,14.1295032501221,14.1483755111694,14.1672992706299,14.1862726211548,14.2052974700928,14.2243738174438,14.2435007095337,14.2626800537109,14.281909942627,14.3011932373047,14.3207588195801,14.3488855361938,14.3771228790283,14.4054708480835,14.4339323043823,14.4625053405762,14.4911918640137,14.5199928283691,14.5489082336426,14.5779390335083,14.6070861816406,14.6363496780396,14.6657304763794,14.6952304840088,14.7248487472534,14.7545862197876,14.78444480896,14.8144245147705,14.8445253372192,14.8747491836548,14.9050960540771,14.935567855835,14.9661636352539,14.9968852996826,15.0277328491211,15.058708190918,15.0882978439331,15.1136922836304,15.1391725540161,15.164737701416,15.190390586853,15.2161293029785,15.2419567108154,15.2678709030151
9.67160987854004,9.71206951141357,9.75286865234375,9.79401302337646,9.8355073928833,9.87735462188721,9.91955947875977,11.5911054611206,11.5908679962158,11.5906314849854,11.5903940200806,11.5901575088501,11.5899209976196,11.5896835327148,11.5894470214844,11.5892095565796,11.5889730453491,11.5887355804443,11.5884990692139,11.5882625579834,11.5880250930786,11.5877885818481,11.5875520706177,11.5873146057129,11.5870780944824,11.586841583252,11.5866041183472,11.5863676071167,11.5861310958862,11.5858945846558,11.585657119751,11.5854206085205,11.58518409729,11.5849475860596,11.5847101211548,11.5844736099243,11.5842370986938,11.5840005874634,11.5837640762329,11.5835266113281,11.5832901000977,11.6376428604126,11.6964054107666,11.7557649612427,11.8157300949097,11.8763103485107,11.9375143051147,11.9614772796631,11.9631223678589,11.9647674560547,11.9664134979248,11.9680595397949,11.9697065353394,11.9713535308838,11.9730014801025,11.9746494293213,11.97629737854,11.9779462814331,11.9795961380005,11.9812459945679,11.9828968048096,11.9845476150513,11.986198425293,11.987850189209,11.989501953125,11.9911546707153,11.99280834198,11.9944620132446,11.9961156845093,11.9977703094482,11.9994249343872,12.0010805130005,12.0027360916138,12.0043926239014,12.006049156189,12.0077066421509,12.0093641281128,12.011022567749,12.0126810073853,12.0143394470215,12.015998840332,12.0176591873169,12.0193195343018,12.0209808349609,12.0226421356201,12.0243034362793,12.0259656906128,12.0276288986206,12.0292911529541,12.0309553146362,12.0326194763184,12.0342836380005,12.0359487533569,12.0376138687134,12.0392799377441,12.0409469604492,12.04261302948,12.0442810058594,12.0459489822388,12.0476169586182,12.0492858886719,12.0509548187256,12.0526237487793,12.0542945861816,12.0559644699097,12.0576362609863,12.0593070983887,12.0609788894653,12.0626516342163,12.0643243789673,12.0659980773926,12.0676717758179,12.0693454742432,12.0710201263428,12.0726957321167,12.0743713378906,12.0760478973389,12.0777244567871,12.0794010162354,12.0810785293579,12.0827569961548,12.0844354629517,12.0861139297485,12.0877933502197,12.0894727706909,12.0911531448364,12.0928344726562,12.0945158004761,12.0961971282959,12.09787940979,12.0995616912842,12.1012449264526,12.1029281616211,12.1046123504639,12.106297492981,12.107982635498,12.1096677780151,12.1113538742065,12.1130399703979,12.1147270202637,12.1164140701294,12.1181020736694,12.1197900772095,12.1214790344238,12.1231679916382,12.1248579025269,12.1265478134155,12.1282386779785,12.1299295425415,12.1316213607788,12.1333131790161,12.1350059509277,12.1366987228394,12.1383924484253,12.1400861740112,12.1417808532715,12.1434755325317,12.1451711654663,12.1468667984009,12.1485633850098,12.1502599716187,12.1519565582275,12.1536550521851,12.1553525924683,12.1611585617065,12.1703243255615,12.1795034408569,12.1886968612671,12.1979036331177,12.207124710083,12.2163591384888,12.2256078720093,12.2348709106445,12.2441482543945,12.253438949585,12.2627439498901,12.2720632553101,12.2813968658447,12.2907447814941,12.300106048584,12.3094825744629,12.3188734054565,12.3282775878906,12.3376970291138,12.3471307754517,12.3565788269043,12.3660411834717,12.3755178451538,12.385009765625,12.3945159912109,12.4040365219116,12.4135713577271,12.4231214523315,12.4326858520508,12.4422655105591,12.4518594741821,12.4614686965942,12.4710931777954,12.4807319641113,12.490385055542,12.5000534057617,12.5097370147705,12.5194358825684,12.5291500091553,12.5388784408569,12.5486221313477,12.5583810806274,12.5681552886963,12.5779447555542,12.5877494812012,12.5975694656372,12.6074047088623,12.6172552108765,12.627121925354,12.6370029449463,12.646900177002,12.6568126678467,12.6667404174805,12.6766843795776,12.6866436004639,12.6966190338135,12.7066097259521,12.7166156768799,12.726637840271,12.7366762161255,12.746729850769,12.7567987442017,12.766884803772,12.7769861221313,12.7871036529541,12.7972373962402,12.8073873519897,12.8175525665283,12.8277349472046,12.8379335403442,12.8481473922729,12.8583784103394,12.8686246871948,12.878888130188,12.8891677856445,12.8994636535645,12.905387878418,12.9113006591797,12.9172191619873,12.9231433868408,12.9290733337402,12.9350080490112,12.9409484863281,12.9468946456909,13.0211019515991,13.0516872406006,13.0677881240845,13.083930015564,13.1001110076904,13.1163320541382,13.1325941085815,13.1488962173462,13.1652393341064,13.181622505188,13.1980466842651,13.2145118713379,13.2310180664062,13.2475652694702,13.2641544342041,13.2807846069336,13.297456741333,13.3141717910767,13.3309278488159,13.3477258682251,13.3645668029785,13.3814506530762,13.3983764648438,13.4153451919556,13.4323577880859,13.4494123458862,13.4665117263794,13.4836540222168,13.5008392333984,13.5180692672729,13.535343170166,13.5526609420776,13.5700235366821,13.5874300003052,13.6048812866211,13.6223783493042,13.6399202346802,13.657506942749,13.6751384735107,13.692816734314,13.7105398178101,13.7283096313477,13.7461252212524,13.7639875411987,13.7818956375122,13.7998504638672,13.8178520202637,13.835901260376,13.8539972305298,13.8721408843994,13.8903322219849,13.9085712432861,13.9268579483032,13.9451932907104,13.9635763168335,13.9820079803467,14.00048828125,14.0190181732178,14.0375967025757,14.056224822998,14.0749025344849,14.0936288833618,14.1124057769775,14.131233215332,14.1501111984253,14.169038772583,14.1880168914795,14.2070474624634,14.2261276245117,14.2452592849731,14.264443397522,14.2836780548096,14.3096256256104,14.3377084732056,14.3659019470215,14.3942060470581,14.4226217269897,14.451150894165,14.4797925949097,14.5085477828979,14.5374174118042,14.5664024353027,14.5955028533936,14.6247205734253,14.6540546417236,14.6835069656372,14.7130784988403,14.742769241333,14.7725791931152,14.8025102615356,14.8325634002686,14.862738609314,14.8930368423462,14.9234580993652,14.9540042877197,14.984676361084,15.015474319458,15.0418863296509,15.0671243667603,15.0924472808838,15.1178560256958,15.143349647522,15.1689291000366,15.1945962905884
9.67172431945801,9.71218490600586,9.75298595428467,9.7941312789917,9.83562660217285,9.87747478485107,9.91968059539795,11.5911073684692,11.5908699035645,11.590633392334,11.5903959274292,11.5901594161987,11.5899219512939,11.5896854400635,11.589448928833,11.5892114639282,11.5889749526978,11.588737487793,11.5885009765625,11.588264465332,11.5880270004272,11.5877904891968,11.5875539779663,11.5873165130615,11.5870800018311,11.5868434906006,11.5866060256958,11.5863695144653,11.5861330032349,11.5858955383301,11.5856590270996,11.5854225158691,11.5851860046387,11.5849494934082,11.5847120285034,11.5844755172729,11.5842390060425,11.584002494812,11.5837659835815,11.5835285186768,11.5832920074463,11.637809753418,11.6965742111206,11.7559356689453,11.8159027099609,11.8764848709106,11.9376907348633,11.9570255279541,11.9586696624756,11.9603137969971,11.9619579315186,11.9636030197144,11.9652481079102,11.9668941497803,11.9685411453247,11.9701881408691,11.9718351364136,11.9734830856323,11.9751310348511,11.9767799377441,11.9784288406372,11.9800786972046,11.981728553772,11.9833793640137,11.9850301742554,11.9866809844971,11.9883327484131,11.9899854660034,11.9916381835938,11.9932918548584,11.994945526123,11.9965991973877,11.9982538223267,11.9999084472656,12.0015640258789,12.0032205581665,12.0048770904541,12.0065336227417,12.0081911087036,12.0098485946655,12.0115070343018,12.013165473938,12.0148248672485,12.0164842605591,12.0181446075439,12.0198049545288,12.021466255188,12.0231275558472,12.0247898101807,12.0264520645142,12.0281143188477,12.0297775268555,12.0314416885376,12.0331058502197,12.0347709655762,12.0364360809326,12.0381011962891,12.0397672653198,12.0414333343506,12.0431003570557,12.0447683334351,12.0464363098145,12.0481042861938,12.0497732162476,12.0514421463013,12.0531120300293,12.0547828674316,12.0564527511597,12.0581245422363,12.059796333313,12.0614681243896,12.0631408691406,12.0648136138916,12.0664873123169,12.0681610107422,12.0698356628418,12.0715103149414,12.0731859207153,12.0748615264893,12.0765371322632,12.0782146453857,12.079891204834,12.0815687179565,12.0832471847534,12.0849256515503,12.0866050720215,12.0882844924927,12.0899639129639,12.0916442871094,12.0933256149292,12.095006942749,12.0966892242432,12.0983715057373,12.1000537872314,12.1017370223999,12.1034212112427,12.1051054000854,12.1067895889282,12.1084747314453,12.1101608276367,12.1118469238281,12.1135330200195,12.1152200698853,12.116907119751,12.118595123291,12.1202840805054,12.1219730377197,12.1236619949341,12.1253519058228,12.1270418167114,12.1287326812744,12.1304244995117,12.132116317749,12.1338081359863,12.1355009078979,12.1371936798096,12.1388874053955,12.1405811309814,12.1422758102417,12.1439714431763,12.1456661224365,12.1473627090454,12.1490592956543,12.1507558822632,12.1524534225464,12.1541509628296,12.1558494567871,12.1579360961914,12.1670961380005,12.1762704849243,12.1854591369629,12.1946611404419,12.2038774490356,12.2131071090698,12.2223510742188,12.2316093444824,12.2408809661865,12.2501668930054,12.259467124939,12.2687816619873,12.2781095504761,12.2874526977539,12.2968091964722,12.3061809539795,12.3155660629272,12.3249654769897,12.3343801498413,12.3438081741333,12.3532514572144,12.3627080917358,12.3721799850464,12.381667137146,12.391167640686,12.4006834030151,12.410213470459,12.4197578430176,12.4293174743652,12.438892364502,12.4484806060791,12.4580850601196,12.4677038192749,12.4773368835449,12.486985206604,12.4966487884521,12.506326675415,12.5160207748413,12.525728225708,12.5354518890381,12.5451908111572,12.5549440383911,12.5647134780884,12.5744972229004,12.5842962265015,12.5941114425659,12.6039409637451,12.6137866973877,12.623646736145,12.6335229873657,12.6434144973755,12.6533212661743,12.6632442474365,12.6731824874878,12.6831359863281,12.6931056976318,12.7030906677246,12.7130918502808,12.723108291626,12.7331409454346,12.7431888580322,12.7532529830933,12.7633333206177,12.7734289169312,12.783540725708,12.7936687469482,12.8038129806519,12.8139724731445,12.8241491317749,12.8343420028687,12.8445501327515,12.854775428772,12.8650159835815,12.8752737045288,12.8848714828491,12.8907661437988,12.8966655731201,12.9025707244873,12.9084815979004,12.9143981933594,12.9203195571899,12.9262466430664,12.9321784973145,12.9381170272827,12.9771604537964,13.0531625747681,13.0692682266235,13.0854139328003,13.101598739624,13.117823600769,13.1340885162354,13.1503953933716,13.1667413711548,13.1831283569336,13.199556350708,13.216025352478,13.2325353622437,13.2490863800049,13.265679359436,13.2823133468628,13.2989892959595,13.3157081604004,13.3324680328369,13.3492698669434,13.366114616394,13.383002281189,13.3999328613281,13.4169054031372,13.4339218139648,13.4509811401367,13.4680833816528,13.4852294921875,13.5024194717407,13.5196533203125,13.5369310379028,13.5542526245117,13.5716190338135,13.5890302658081,13.6064863204956,13.6239862442017,13.6415328979492,13.6591234207153,13.6767597198486,13.6944417953491,13.7121696472168,13.7299432754517,13.7477626800537,13.7656288146973,13.7835416793823,13.8015012741089,13.819507598877,13.8375606536865,13.8556613922119,13.8738088607788,13.8920040130615,13.9102478027344,13.928539276123,13.9468784332275,13.9652662277222,13.9837026596069,14.0021877288818,14.0207214355469,14.0393047332764,14.0579376220703,14.0766191482544,14.0953512191772,14.1141328811646,14.1329641342163,14.1518459320068,14.1707792282104,14.1897621154785,14.2087965011597,14.2278814315796,14.2470188140869,14.270580291748,14.2985095977783,14.326548576355,14.3546981811523,14.3829584121704,14.4113302230835,14.4398136138916,14.4684104919434,14.4971208572388,14.5259447097778,14.5548839569092,14.5839385986328,14.613109588623,14.6423978805542,14.6718034744263,14.7013273239136,14.7309703826904,14.7607326507568,14.7906160354614,14.8206205368042,14.8507471084595,14.8809957504272,14.9113683700562,14.9418659210205,14.9707593917847,14.9957599639893,15.0208425521851,15.046010017395,15.0712623596191,15.0965995788574,15.1220216751099
9.67183876037598,9.71230030059814,9.75310230255127,9.79424953460693,9.8357458114624,9.87759494781494,9.91980171203613,11.5911092758179,11.5908718109131,11.5906352996826,11.5903978347778,11.5901613235474,11.5899238586426,11.5896873474121,11.5894498825073,11.5892133712769,11.5889768600464,11.5887393951416,11.5885028839111,11.5882663726807,11.5880289077759,11.5877923965454,11.5875549316406,11.5873184204102,11.5870819091797,11.5868453979492,11.5866079330444,11.586371421814,11.5861349105835,11.5858974456787,11.5856609344482,11.5854244232178,11.5851879119873,11.5849504470825,11.5847139358521,11.5844774246216,11.5842409133911,11.5840044021606,11.5837669372559,11.5835304260254,11.5832939147949,11.6379766464233,11.6967439651489,11.7561063766479,11.8160753250122,11.8766584396362,11.9378662109375,11.9525775909424,11.9542198181152,11.9558629989624,11.9575061798096,11.9591503143311,11.9607944488525,11.962438583374,11.9640836715698,11.9657297134399,11.9673757553101,11.9690217971802,11.9706697463989,11.9723167419434,11.9739646911621,11.9756126403809,11.9772615432739,11.9789113998413,11.9805603027344,11.9822111129761,11.9838619232178,11.9855127334595,11.9871644973755,11.9888162612915,11.9904689788818,11.9921216964722,11.9937744140625,11.9954290390015,11.9970827102661,11.9987373352051,12.0003929138184,12.0020484924316,12.0037040710449,12.0053606033325,12.0070180892944,12.0086755752563,12.0103330612183,12.0119915008545,12.013650894165,12.0153102874756,12.0169696807861,12.018630027771,12.0202903747559,12.021951675415,12.0236129760742,12.0252752304077,12.0269374847412,12.028600692749,12.0302639007568,12.031928062439,12.0335922241211,12.0352573394775,12.036922454834,12.0385885238647,12.0402545928955,12.0419206619263,12.0435876846313,12.0452556610107,12.0469236373901,12.0485925674438,12.0502614974976,12.0519304275513,12.0536003112793,12.0552711486816,12.056941986084,12.0586128234863,12.060284614563,12.0619564056396,12.0636291503906,12.0653028488159,12.0669765472412,12.0686502456665,12.0703248977661,12.0719995498657,12.0736751556396,12.0753507614136,12.0770273208618,12.0787048339844,12.0803813934326,12.0820598602295,12.0837373733521,12.0854167938232,12.0870952606201,12.0887756347656,12.0904550552368,12.0921363830566,12.0938167572021,12.095498085022,12.0971803665161,12.0988626480103,12.1005458831787,12.1022291183472,12.1039133071899,12.1055974960327,12.1072826385498,12.1089677810669,12.110652923584,12.1123390197754,12.1140260696411,12.1157131195068,12.1174011230469,12.1190891265869,12.120777130127,12.1224660873413,12.12415599823,12.1258459091187,12.1275367736816,12.1292276382446,12.1309185028076,12.1326103210449,12.1343030929565,12.1359958648682,12.1376886367798,12.1393823623657,12.141077041626,12.1427717208862,12.1444664001465,12.1461620330811,12.1478586196899,12.1495552062988,12.1512517929077,12.1529493331909,12.1546478271484,12.156346321106,12.1580448150635,12.1638708114624,12.1730394363403,12.1822233200073,12.1914205551147,12.2006311416626,12.2098569869995,12.2190952301025,12.2283487319946,12.2376155853271,12.2468967437744,12.2561922073364,12.2655010223389,12.2748250961304,12.2841625213623,12.293514251709,12.3028802871704,12.3122606277466,12.3216552734375,12.3310642242432,12.3404874801636,12.349925994873,12.3593778610229,12.3688449859619,12.3783254623413,12.3878221511841,12.3973321914673,12.4068574905396,12.4163970947266,12.4259510040283,12.4355201721191,12.4451036453247,12.4547023773193,12.464316368103,12.4739446640015,12.4835872650146,12.4932451248169,12.5029182434082,12.5126066207886,12.5223093032837,12.5320281982422,12.5417613983154,12.5515089035034,12.5612726211548,12.5710515975952,12.5808458328247,12.5906543731689,12.6004791259766,12.6103191375732,12.620174407959,12.6300449371338,12.6399307250977,12.6498327255249,12.6597499847412,12.6696825027466,12.679630279541,12.6895942687988,12.69957447052,12.7095699310303,12.7195806503296,12.7296075820923,12.739649772644,12.7497081756592,12.7597827911377,12.7698736190796,12.7799797058105,12.7901020050049,12.8002405166626,12.8103942871094,12.8205652236938,12.8307523727417,12.8409547805786,12.8511743545532,12.8614091873169,12.8702964782715,12.8761768341064,12.8820638656616,12.8879556655884,12.893853187561,12.8997554779053,12.9056634902954,12.9115772247314,12.9174966812134,12.9234209060669,12.9293508529663,12.9352855682373,13.0433435440063,13.0707492828369,13.0868978500366,13.1030864715576,13.1193151473999,13.1355848312378,13.1518936157227,13.1682443618774,13.1846351623535,13.2010660171509,13.2175388336182,13.2340526580811,13.2506074905396,13.267204284668,13.283842086792,13.3005228042603,13.3172445297241,13.3340082168579,13.3508148193359,13.3676633834839,13.3845548629761,13.4014892578125,13.4184656143188,13.4354858398438,13.4525489807129,13.4696559906006,13.4868059158325,13.503999710083,13.5212373733521,13.5385189056396,13.5558452606201,13.5732154846191,13.5906314849854,13.6080904006958,13.6255960464478,13.6431455612183,13.660740852356,13.6783809661865,13.6960668563843,13.7137994766235,13.7315769195557,13.7494010925293,13.7672719955444,13.7851886749268,13.8031520843506,13.8211622238159,13.8392200469971,13.8573246002197,13.8754777908325,13.8936777114868,13.9119253158569,13.9302206039429,13.9485645294189,13.9669570922852,13.9853973388672,14.0038871765137,14.0224256515503,14.0410127639771,14.0596504211426,14.0783367156982,14.0970726013184,14.1158590316772,14.1346960067749,14.153582572937,14.1725196838379,14.1915073394775,14.2105464935303,14.231746673584,14.2595243453979,14.287410736084,14.3154067993164,14.3435115814209,14.3717279434204,14.4000549316406,14.4284944534302,14.4570465087891,14.4857120513916,14.5144901275635,14.543384552002,14.5723924636841,14.6015176773071,14.6307592391968,14.6601181030273,14.6895942687988,14.7191905975342,14.7489051818848,14.7787408828735,14.8086967468262,14.8387746810913,14.8689746856689,14.8992986679077,14.925066947937,14.949914932251,14.9748449325562,14.9998579025269,15.0249557495117,15.0501365661621
9.67195320129395,9.71241664886475,9.75321960449219,9.79436779022217,9.83586502075195,9.87771511077881,9.91992282867432,11.5911111831665,11.5908737182617,11.5906372070312,11.5903997421265,11.590163230896,11.5899257659912,11.5896892547607,11.589451789856,11.5892152786255,11.588978767395,11.5887413024902,11.5885047912598,11.588267326355,11.5880308151245,11.587794303894,11.5875568389893,11.5873203277588,11.5870838165283,11.5868463516235,11.5866098403931,11.5863733291626,11.5861368179321,11.5858993530273,11.5856628417969,11.5854263305664,11.5851898193359,11.5849523544312,11.5847158432007,11.5844793319702,11.5842428207397,11.584005355835,11.5837688446045,11.583532333374,11.5832958221436,11.638144493103,11.6969127655029,11.7562770843506,11.8162479400635,11.8768329620361,11.938042640686,11.9481325149536,11.9497737884521,11.9514150619507,11.9530572891235,11.9546995162964,11.9563426971436,11.957986831665,11.9596300125122,11.961275100708,11.9629201889038,11.9645652770996,11.9662103652954,11.9678573608398,11.96950340271,11.9711503982544,11.9727983474731,11.9744462966919,11.976095199585,11.977744102478,11.9793930053711,11.9810428619385,11.9826936721802,11.9843444824219,11.9859952926636,11.9876470565796,11.9892988204956,11.9909515380859,11.9926042556763,11.9942579269409,11.9959125518799,11.9975662231445,11.9992218017578,12.0008764266968,12.0025320053101,12.0041885375977,12.0058450698853,12.0075025558472,12.0091600418091,12.0108184814453,12.0124769210815,12.0141353607178,12.0157947540283,12.0174551010132,12.019115447998,12.0207757949829,12.0224370956421,12.0240993499756,12.0257616043091,12.0274238586426,12.0290870666504,12.0307502746582,12.0324144363403,12.0340785980225,12.0357437133789,12.0374097824097,12.0390748977661,12.0407419204712,12.042407989502,12.0440759658813,12.0457429885864,12.0474109649658,12.0490798950195,12.0507488250732,12.0524187088013,12.0540885925293,12.0557594299316,12.057430267334,12.0591011047363,12.0607738494873,12.062445640564,12.0641183853149,12.0657920837402,12.0674657821655,12.0691394805908,12.0708141326904,12.0724897384644,12.0741653442383,12.0758409500122,12.0775175094604,12.079195022583,12.0808725357056,12.0825500488281,12.084228515625,12.0859069824219,12.0875864028931,12.0892667770386,12.0909461975098,12.0926275253296,12.0943088531494,12.0959901809692,12.0976724624634,12.0993547439575,12.101037979126,12.1027212142944,12.1044054031372,12.10608959198,12.1077747344971,12.1094598770142,12.1111459732056,12.112832069397,12.1145191192627,12.1162061691284,12.1178941726685,12.1195821762085,12.1212711334229,12.1229600906372,12.1246500015259,12.1263399124146,12.1280307769775,12.1297216415405,12.1314134597778,12.1331052780151,12.1347970962524,12.1364908218384,12.13818359375,12.1398773193359,12.1415719985962,12.1432666778564,12.144962310791,12.1466579437256,12.1483545303345,12.1500511169434,12.1517477035522,12.1534461975098,12.155143737793,12.1568422317505,12.1585416793823,12.1606464385986,12.169810295105,12.1789894104004,12.1881818771362,12.1973876953125,12.2066078186035,12.2158422470093,12.2250900268555,12.2343521118164,12.2436285018921,12.2529182434082,12.2622222900391,12.271541595459,12.2808742523193,12.2902202606201,12.29958152771,12.3089570999146,12.3183469772339,12.327751159668,12.3371686935425,12.3466014862061,12.3560485839844,12.3655109405518,12.3749866485596,12.3844776153564,12.3939828872681,12.4035024642944,12.4130373001099,12.42258644104,12.432149887085,12.4417285919189,12.451322555542,12.4609308242798,12.4705533981323,12.4801912307739,12.4898443222046,12.49951171875,12.5091943740845,12.518892288208,12.5286054611206,12.5383329391479,12.5480766296387,12.5578346252441,12.5676078796387,12.5773963928223,12.5872001647949,12.5970191955566,12.6068534851074,12.6167030334473,12.6265687942505,12.6364498138428,12.6463451385498,12.6562566757202,12.666184425354,12.6761274337769,12.6860857009888,12.6960592269897,12.7060489654541,12.7160549163818,12.7260761260986,12.7361135482788,12.746166229248,12.7562351226807,12.7663192749023,12.7764205932617,12.7865371704102,12.796669960022,12.8068180084229,12.8169832229614,12.8271646499634,12.8373613357544,12.8475751876831,12.8557538986206,12.8616218566895,12.8674945831299,12.8733730316162,12.8792572021484,12.8851470947266,12.8910417556763,12.8969421386719,12.9028472900391,12.9087581634521,12.9146747589111,12.9205961227417,12.9265232086182,12.9992523193359,13.072229385376,13.0883817672729,13.1045742034912,13.1208076477051,13.1370801925659,13.1533937454224,13.1697473526001,13.1861410140991,13.2025766372681,13.2190532684326,13.2355709075928,13.2521295547485,13.2687301635742,13.2853717803955,13.302056312561,13.3187818527222,13.3355493545532,13.3523597717285,13.3692121505737,13.3861074447632,13.4030456542969,13.4200267791748,13.4370498657227,13.4541177749634,13.471227645874,13.4883823394775,13.5055799484253,13.5228223800659,13.5401077270508,13.5574378967285,13.5748128890991,13.5922317504883,13.6096963882446,13.6272048950195,13.6447591781616,13.6623582839966,13.6800031661987,13.6976928710938,13.7154293060303,13.733211517334,13.7510395050049,13.7689142227173,13.7868356704712,13.8048038482666,13.8228187561035,13.8408803939819,13.8589897155762,13.8771457672119,13.8953504562378,13.9136028289795,13.9319019317627,13.9502506256104,13.9686470031738,13.9870929718018,14.0055866241455,14.0241298675537,14.0427217483521,14.0613632202148,14.0800542831421,14.0987949371338,14.1175861358643,14.1364269256592,14.1553182601929,14.1742601394653,14.1932525634766,14.2207517623901,14.2484865188599,14.2763290405273,14.3042812347412,14.3323431015015,14.3605155944824,14.3887987136841,14.4171934127808,14.4457006454468,14.4743204116821,14.5030546188354,14.5319023132324,14.5608654022217,14.5899438858032,14.6191387176514,14.6484508514404,14.6778802871704,14.7074289321899,14.737096786499,14.7668838500977,14.7967920303345,14.8268213272095,14.8550386428833,14.8796529769897,14.9043493270874,14.9291276931763,14.9539880752563,14.9789323806763
9.67206859588623,9.71253204345703,9.75333595275879,9.7944860458374,9.83598327636719,9.87783527374268,9.9200439453125,11.5911121368408,11.5908756256104,11.5906381607056,11.5904016494751,11.5901651382446,11.5899276733398,11.5896911621094,11.5894536972046,11.5892171859741,11.5889797210693,11.5887432098389,11.5885066986084,11.5882692337036,11.5880327224731,11.5877962112427,11.5875587463379,11.5873222351074,11.587085723877,11.5868482589722,11.5866117477417,11.5863752365112,11.5861377716064,11.585901260376,11.5856647491455,11.585428237915,11.5851907730103,11.5849542617798,11.5847177505493,11.5844812393188,11.5842447280884,11.5840072631836,11.5837707519531,11.5835342407227,11.5832977294922,11.6383113861084,11.6970815658569,11.7564477920532,11.8164196014404,11.8770065307617,11.9382181167603,11.9436902999878,11.945330619812,11.9469709396362,11.9486122131348,11.9502534866333,11.9518947601318,11.953537940979,11.9551801681519,11.956823348999,11.9584665298462,11.9601106643677,11.9617557525635,11.9634008407593,11.9650459289551,11.9666919708252,11.9683380126953,11.9699850082397,11.9716320037842,11.9732799530029,11.9749279022217,11.9765768051147,11.9782257080078,11.9798755645752,11.9815254211426,11.9831762313843,11.984827041626,11.9864778518677,11.9881296157837,11.989782333374,11.9914350509644,11.9930877685547,11.9947414398193,11.9963960647583,11.9980497360229,11.9997053146362,12.0013608932495,12.0030164718628,12.0046730041504,12.006329536438,12.0079870223999,12.0096445083618,12.011302947998,12.0129613876343,12.0146207809448,12.0162801742554,12.0179405212402,12.0196008682251,12.02126121521,12.0229225158691,12.0245847702026,12.0262470245361,12.0279102325439,12.0295734405518,12.0312366485596,12.0329008102417,12.0345659255981,12.0362310409546,12.037896156311,12.0395622253418,12.0412282943726,12.0428953170776,12.044563293457,12.0462312698364,12.0478992462158,12.0495681762695,12.0512371063232,12.0529069900513,12.0545768737793,12.0562477111816,12.057918548584,12.0595903396606,12.0612621307373,12.0629348754883,12.0646076202393,12.0662813186646,12.0679550170898,12.0696296691895,12.0713043212891,12.0729789733887,12.0746545791626,12.0763311386108,12.0780076980591,12.0796852111816,12.0813627243042,12.0830402374268,12.0847187042236,12.0863981246948,12.088077545166,12.0897579193115,12.091438293457,12.0931186676025,12.0947999954224,12.0964822769165,12.0981636047363,12.0998468399048,12.1015300750732,12.1032133102417,12.1048974990845,12.1065826416016,12.1082677841187,12.1099529266357,12.1116390228271,12.1133251190186,12.1150121688843,12.1167001724243,12.11838722229,12.1200761795044,12.1217651367188,12.1234540939331,12.1251440048218,12.1268339157104,12.1285247802734,12.1302156448364,12.1319074630737,12.1336002349854,12.1352920532227,12.1369857788086,12.1386785507202,12.1403732299805,12.1420679092407,12.143762588501,12.1454582214355,12.1471538543701,12.148850440979,12.1505470275879,12.1522445678711,12.1539421081543,12.1556406021118,12.1573390960693,12.1590385437012,12.160737991333,12.1665830612183,12.1757564544678,12.184944152832,12.1941452026367,12.2033605575562,12.2125902175903,12.2218332290649,12.2310905456543,12.2403612136841,12.2496461868286,12.2589464187622,12.2682590484619,12.2775869369507,12.2869291305542,12.2962846755981,12.3056554794312,12.3150396347046,12.3244390487671,12.33385181427,12.343279838562,12.3527221679688,12.3621788024902,12.3716497421265,12.3811349868774,12.3906354904175,12.4001502990723,12.4096794128418,12.4192237854004,12.4287824630737,12.4383554458618,12.447943687439,12.4575462341309,12.4671640396118,12.4767971038818,12.4864444732666,12.4961071014404,12.5057849884033,12.515477180481,12.5251846313477,12.5349073410034,12.5446453094482,12.5543975830078,12.5641660690308,12.5739488601685,12.5837469100952,12.5935611724854,12.6033897399902,12.6132345199585,12.6230945587158,12.6329698562622,12.6428604125977,12.6527662277222,12.6626882553101,12.672625541687,12.682578086853,12.6925468444824,12.7025308609009,12.7125310897827,12.7225465774536,12.7325782775879,12.7426252365112,12.7526893615723,12.762767791748,12.7728633880615,12.7829742431641,12.79310131073,12.8032445907593,12.8134031295776,12.8235788345337,12.8337707519531,12.8412446975708,12.8470993041992,12.8529586791992,12.8588237762451,12.8646945953369,12.8705711364746,12.8764524459839,12.8823394775391,12.8882312774658,12.8941287994385,12.900032043457,12.9059400558472,12.9118537902832,12.9177732467651,12.9554586410522,13.0656614303589,13.0898666381836,13.1060628890991,13.1222991943359,13.138575553894,13.1548929214478,13.1712503433228,13.1876487731934,13.2040872573853,13.2205677032471,13.2370891571045,13.2536516189575,13.2702560424805,13.2869024276733,13.3035898208618,13.3203191757202,13.3370914459229,13.3539047241211,13.3707618713379,13.3876609802246,13.4046030044556,13.4215869903564,13.4386148452759,13.4556865692139,13.4728012084961,13.4899597167969,13.5071611404419,13.5244073867798,13.5416975021362,13.5590314865112,13.5764102935791,13.5938329696655,13.6113014221191,13.6288146972656,13.646372795105,13.6639757156372,13.6816244125366,13.6993188858032,13.7170600891113,13.7348461151123,13.7526788711548,13.7705574035645,13.7884836196899,13.8064556121826,13.8244743347168,13.8425407409668,13.8606548309326,13.8788146972656,13.8970241546631,13.9152803421021,13.9335851669312,13.9519376754761,13.9703388214111,13.9887886047363,14.0072870254517,14.0258340835571,14.0444316864014,14.0630769729614,14.0817728042603,14.1005182266235,14.1193141937256,14.1381597518921,14.1570558547974,14.1821889877319,14.2097730636597,14.2374649047852,14.2652654647827,14.293173789978,14.3211917877197,14.3493204116821,14.3775596618652,14.405909538269,14.4343719482422,14.4629468917847,14.4916362762451,14.5204381942749,14.549355506897,14.5783882141113,14.6075372695923,14.6368026733398,14.6661853790283,14.695686340332,14.7253065109253,14.7550468444824,14.7849063873291,14.8100490570068,14.8345146179199,14.8590602874756,14.8836879730225,14.9083976745605
9.6721830368042,9.71264743804932,9.75345325469971,9.79460334777832,9.83610248565674,9.87795448303223,9.92016506195068,11.5911140441895,11.590877532959,11.5906400680542,11.5904035568237,11.5901660919189,11.5899295806885,11.589693069458,11.5894556045532,11.5892190933228,11.588981628418,11.5887451171875,11.588508605957,11.5882711410522,11.5880346298218,11.5877981185913,11.5875606536865,11.5873241424561,11.5870876312256,11.5868501663208,11.5866136550903,11.5863771438599,11.5861396789551,11.5859031677246,11.5856666564941,11.5854301452637,11.5851926803589,11.5849561691284,11.5847196578979,11.5844831466675,11.5842456817627,11.5840091705322,11.5837726593018,11.5835361480713,11.5832996368408,11.6384792327881,11.6972503662109,11.7566184997559,11.8165922164917,11.8771810531616,11.9376134872437,11.9392518997192,11.9408912658691,11.942530632019,11.9441699981689,11.9458103179932,11.9474506378174,11.9490919113159,11.9507331848145,11.9523754119873,11.9540176391602,11.9556608200073,11.9573040008545,11.9589471817017,11.9605913162231,11.9622364044189,11.9638814926147,11.9655275344849,11.967173576355,11.9688196182251,11.9704666137695,11.972113609314,11.9737615585327,11.9754104614258,11.9770584106445,11.9787082672119,11.9803581237793,11.9820079803467,11.9836587905884,11.9853096008301,11.9869604110718,11.9886131286621,11.9902648925781,11.9919176101685,11.9935712814331,11.9952249526978,11.9968795776367,11.9985342025757,12.0001888275146,12.0018444061279,12.0035009384155,12.0051574707031,12.0068140029907,12.0084714889526,12.0101289749146,12.0117874145508,12.0134468078613,12.0151052474976,12.0167655944824,12.0184259414673,12.0200862884521,12.0217475891113,12.0234088897705,12.025071144104,12.0267333984375,12.028395652771,12.0300598144531,12.0317230224609,12.0333871841431,12.0350522994995,12.036717414856,12.0383834838867,12.0400495529175,12.0417156219482,12.0433826446533,12.0450506210327,12.0467185974121,12.0483865737915,12.0500555038452,12.0517253875732,12.0533952713013,12.0550651550293,12.0567359924316,12.058406829834,12.0600786209106,12.0617513656616,12.0634241104126,12.0650968551636,12.0667705535889,12.0684442520142,12.0701189041138,12.0717935562134,12.0734691619873,12.0751447677612,12.0768213272095,12.0784978866577,12.0801753997803,12.0818529129028,12.0835313796997,12.0852098464966,12.0868892669678,12.088568687439,12.0902490615845,12.09192943573,12.0936098098755,12.0952911376953,12.0969734191895,12.0986557006836,12.1003389358521,12.1020221710205,12.103705406189,12.1053905487061,12.1070747375488,12.1087598800659,12.1104459762573,12.1121320724487,12.1138181686401,12.1155052185059,12.1171932220459,12.1188812255859,12.120569229126,12.1222581863403,12.123948097229,12.1256380081177,12.1273279190063,12.1290187835693,12.1307106018066,12.1324024200439,12.1340942382812,12.1357870101929,12.1374807357788,12.1391744613647,12.1408681869507,12.1425628662109,12.1442575454712,12.1459531784058,12.1476497650146,12.1493463516235,12.1510429382324,12.1527404785156,12.1544389724731,12.1561365127563,12.1578359603882,12.15953540802,12.1612348556519,12.1633577346802,12.1725263595581,12.1817083358765,12.1909046173096,12.2001152038574,12.20934009552,12.218578338623,12.2278299331665,12.237096786499,12.246376991272,12.2556715011597,12.2649793624878,12.274302482605,12.2836389541626,12.292989730835,12.3023557662964,12.3117351531982,12.3211288452148,12.3305368423462,12.3399600982666,12.3493967056274,12.3588485717773,12.3683137893677,12.3777942657471,12.3872900009155,12.3967990875244,12.4063234329224,12.4158620834351,12.4254159927368,12.4349842071533,12.4445667266846,12.4541645050049,12.4637775421143,12.4734048843384,12.4830474853516,12.4927043914795,12.5023765563965,12.5120639801025,12.5217657089233,12.5314836502075,12.5412158966064,12.5509634017944,12.5607252120972,12.5705032348633,12.5802965164185,12.5901050567627,12.599928855896,12.6097679138184,12.6196222305298,12.6294918060303,12.6393766403198,12.6492776870728,12.6591939926147,12.6691255569458,12.6790733337402,12.6890363693237,12.6990146636963,12.7090091705322,12.7190198898315,12.7290458679199,12.7390871047974,12.7491445541382,12.7592182159424,12.76930809021,12.7794132232666,12.7895345687866,12.79967212677,12.8098258972168,12.8199949264526,12.8267679214478,12.8326091766357,12.8384552001953,12.8443078994751,12.8501653671265,12.8560276031494,12.8618965148926,12.867769241333,12.8736486434937,12.8795328140259,12.8854217529297,12.8913173675537,12.8972177505493,12.9031238555908,12.9090347290039,12.9149513244629,13.0214195251465,13.0913515090942,13.107551574707,13.1237916946411,13.1400718688965,13.1563930511475,13.1727542877197,13.1891555786133,13.2055988311768,13.2220830917358,13.2386083602905,13.2551746368408,13.271782875061,13.2884321212769,13.3051242828369,13.3218574523926,13.3386325836182,13.355450630188,13.3723115921021,13.389214515686,13.4061603546143,13.4231491088867,13.4401807785034,13.4572563171387,13.4743747711182,13.4915370941162,13.5087423324585,13.5259923934937,13.5432863235474,13.5606250762939,13.5780076980591,13.5954351425171,13.612907409668,13.6304244995117,13.6479864120483,13.6655941009521,13.6832475662231,13.700945854187,13.7186908721924,13.7364816665649,13.7543182373047,13.7722015380859,13.7901315689087,13.8081073760986,13.8261308670044,13.844202041626,13.8623199462891,13.8804845809937,13.8986978530884,13.9169588088989,13.9352674484253,13.9536247253418,13.9720306396484,13.9904842376709,14.0089874267578,14.0275392532349,14.0461406707764,14.0647916793823,14.0834913253784,14.1022415161133,14.1210412979126,14.1438341140747,14.1712694168091,14.1988115310669,14.2264604568481,14.2542181015015,14.2820835113525,14.31005859375,14.3381423950195,14.3663377761841,14.3946437835693,14.4230613708496,14.4515924453735,14.4802350997925,14.5089921951294,14.5378637313843,14.5668506622314,14.5959539413452,14.6251726150513,14.6545085906982,14.6839628219604,14.7135362625122,14.7410926818848,14.7653303146362,14.7896480560303,14.8140468597412,14.8385248184204
9.67229747772217,9.71276378631592,9.75357055664062,9.79472160339355,9.83622169494629,9.87807464599609,9.92028617858887,11.5911159515381,11.5908794403076,11.5906419754028,11.5904054641724,11.5901679992676,11.5899314880371,11.5896949768066,11.5894575119019,11.5892210006714,11.5889835357666,11.5887470245361,11.5885105133057,11.5882730484009,11.5880365371704,11.5877990722656,11.5875625610352,11.5873260498047,11.5870885848999,11.5868520736694,11.586615562439,11.5863790512085,11.5861415863037,11.5859050750732,11.5856685638428,11.585431098938,11.5851945877075,11.5849580764771,11.5847215652466,11.5844850540161,11.5842475891113,11.5840110778809,11.5837745666504,11.5835380554199,11.5833015441895,11.6386461257935,11.6974191665649,11.7567892074585,11.8167638778687,11.8773527145386,11.9331798553467,11.9348173141479,11.9364547729492,11.9380922317505,11.9397315979004,11.941370010376,11.9430093765259,11.9446496963501,11.9462900161743,11.9479303359985,11.9495716094971,11.9512128829956,11.9528551101685,11.9544973373413,11.9561405181885,11.95778465271,11.9594278335571,11.9610729217529,11.9627170562744,11.9643621444702,11.9660081863403,11.9676542282104,11.9693012237549,11.9709482192993,11.9725952148438,11.9742431640625,11.9758920669556,11.9775409698486,11.9791898727417,11.9808397293091,11.9824905395508,11.9841413497925,11.9857921600342,11.9874439239502,11.9890956878662,11.9907484054565,11.9924011230469,11.9940547943115,11.9957084655762,11.9973630905151,11.9990177154541,12.0006732940674,12.0023288726807,12.0039844512939,12.0056409835815,12.0072984695435,12.0089559555054,12.0106143951416,12.0122728347778,12.0139312744141,12.0155906677246,12.0172510147095,12.01891040802,12.0205717086792,12.0222330093384,12.0238943099976,12.0255565643311,12.0272188186646,12.0288820266724,12.0305461883545,12.0322093963623,12.0338745117188,12.0355386734009,12.0372047424316,12.0388698577881,12.0405368804932,12.0422029495239,12.043869972229,12.0455379486084,12.0472059249878,12.0488748550415,12.0505437850952,12.0522136688232,12.0538835525513,12.0555534362793,12.0572242736816,12.0588960647583,12.060567855835,12.0622396469116,12.0639123916626,12.0655860900879,12.0672597885132,12.0689334869385,12.0706081390381,12.072283744812,12.0739593505859,12.0756349563599,12.0773115158081,12.0789880752563,12.0806655883789,12.0823431015015,12.0840215682983,12.0857009887695,12.0873794555664,12.0890598297119,12.0907402038574,12.0924205780029,12.0941019058228,12.0957832336426,12.0974655151367,12.0991477966309,12.1008310317993,12.1025142669678,12.1041984558105,12.1058826446533,12.1075677871704,12.1092529296875,12.1109390258789,12.1126251220703,12.1143112182617,12.1159992218018,12.1176862716675,12.1193742752075,12.1210632324219,12.1227521896362,12.1244421005249,12.1261320114136,12.1278228759766,12.1295137405396,12.1312046051025,12.1328964233398,12.1345891952515,12.1362819671631,12.137975692749,12.139669418335,12.1413631439209,12.1430587768555,12.1447534561157,12.1464490890503,12.1481456756592,12.1498422622681,12.151538848877,12.1532363891602,12.1549348831177,12.1566333770752,12.158332824707,12.1600322723389,12.1617317199707,12.1634321212769,12.1692972183228,12.1784744262695,12.1876659393311,12.1968717575073,12.206090927124,12.2153244018555,12.2245721817017,12.2338333129883,12.2431087493896,12.2523975372314,12.2617015838623,12.2710189819336,12.2803506851196,12.2896966934204,12.2990570068359,12.3084316253662,12.3178205490112,12.327223777771,12.3366413116455,12.3460731506348,12.3555192947388,12.3649806976318,12.3744554519653,12.3839454650879,12.3934497833252,12.4029693603516,12.4125032424927,12.4220514297485,12.4316139221191,12.4411916732788,12.4507846832275,12.460391998291,12.4700145721436,12.4796514511108,12.4893035888672,12.4989700317383,12.5086517333984,12.5183486938477,12.5280609130859,12.5377883911133,12.5475301742554,12.5572872161865,12.5670595169067,12.5768480300903,12.5866508483887,12.5964689254761,12.6063022613525,12.6161518096924,12.626015663147,12.6358957290649,12.645791053772,12.6557016372681,12.6656284332275,12.6755695343018,12.6855278015137,12.6955003738403,12.7054891586304,12.7154941558838,12.7255144119263,12.7355508804321,12.7456026077271,12.7556705474854,12.765754699707,12.7758541107178,12.7859697341919,12.7961015701294,12.8062496185303,12.8123235702515,12.818151473999,12.8239850997925,12.8298244476318,12.8356685638428,12.8415174484253,12.847373008728,12.8532333374023,12.8590984344482,12.86496925354,12.8708457946777,12.876727104187,12.8826141357422,12.8885068893433,12.8944044113159,12.9003076553345,12.9062166213989,12.9774761199951,13.0880565643311,13.1090412139893,13.1252851486206,13.1415681838989,13.1578931808472,13.1742582321167,13.1906633377075,13.2071104049683,13.2235984802246,13.2401275634766,13.2566976547241,13.2733087539673,13.2899627685547,13.3066577911377,13.3233957290649,13.3401746749878,13.3569965362549,13.3738613128662,13.3907680511475,13.4077177047729,13.4247102737427,13.441746711731,13.4588260650635,13.4759483337402,13.4931144714355,13.5103244781494,13.5275783538818,13.5448760986328,13.5622186660767,13.5796060562134,13.5970373153687,13.6145133972168,13.6320352554321,13.649600982666,13.6672134399414,13.6848697662354,13.7025728225708,13.7203216552734,13.7381172180176,13.7559576034546,13.7738456726074,13.7917795181274,13.809760093689,13.8277883529663,13.8458633422852,13.8639850616455,13.8821544647217,13.900372505188,13.9186372756958,13.9369506835938,13.9553127288818,13.9737224578857,13.9921817779541,14.0106887817383,14.0292453765869,14.0478506088257,14.0665063858032,14.0852108001709,14.1056871414185,14.1329746246338,14.1603679656982,14.1878671646118,14.2154741287231,14.2431879043579,14.2710103988647,14.2989416122437,14.3269824981689,14.3551340103149,14.3833951950073,14.411768913269,14.4402542114258,14.4688529968262,14.4975652694702,14.5263910293579,14.5553321838379,14.5843887329102,14.613561630249,14.6428508758545,14.6722583770752,14.6967897415161,14.7208814620972,14.7450532913208,14.7693042755127
