13.0974864959717,13.0972280502319,13.0969696044922,13.0967111587524,13.0964527130127,13.0961942672729,13.0959358215332,13.0956773757935,13.0954189300537,13.095160484314,13.0949020385742,13.0946435928345,13.0943851470947,13.0941276550293,13.0938692092896,13.0936107635498,13.0455694198608,13.0453128814697,13.0450553894043,13.0447978973389,13.0445413589478,9.08200263977051,9.07343864440918,9.06667137145996,9.07185077667236,9.07703590393066,9.08222484588623,9.09511852264404,9.11185741424561,9.13186740875244,13.2718553543091,13.2715940475464,13.2713317871094,13.2710704803467,13.2708082199097,13.270546913147,13.27028465271,13.2700233459473,13.2697620391846,13.2694997787476,13.2692384719849,13.2689771652222,13.2687149047852,13.2684535980225,13.2681922912598,13.2679300308228,13.2676687240601,11.6074419021606,11.6072130203247,11.6069841384888,11.6067552566528,11.6065263748169,11.606297492981,11.606068611145,11.6058397293091,11.6056108474731,11.6053819656372,11.6051540374756,11.6049251556396,11.6046962738037,11.6044673919678,11.6042385101318,11.6040096282959,11.60378074646,11.6035528182983,11.6033239364624,11.6030950546265,11.6028661727905,11.6026372909546,11.602409362793,11.602180480957,11.6019515991211,11.6017227172852,11.6014947891235,11.6012659072876,11.6010370254517,11.6008081436157,11.6005802154541,11.6003513336182,11.6001224517822,11.5998945236206,11.5996656417847,11.5994367599487,11.5992088317871,11.5989799499512,11.5987510681152,11.5985231399536,11.5982942581177,11.5980653762817,11.5978374481201,11.5976085662842,11.5973806381226,11.5971517562866,11.596923828125,11.5966949462891,11.5964670181274,11.5962381362915,11.5960102081299,11.5957813262939,11.595552444458,11.5953245162964,11.5950965881348,11.5948677062988,11.5946397781372,11.5944108963013,11.5941829681396,11.5939540863037,11.5937261581421,11.5934972763062,11.5932693481445,11.5930414199829,11.592812538147,11.5925846099854,11.5923566818237,11.5921277999878,11.5918998718262,11.5916719436646,11.5914430618286,11.591215133667,11.5909872055054,11.592601776123,11.6156225204468,11.6387357711792,11.661940574646,11.6852378845215,11.6931114196777,11.7007160186768,11.7083311080933,11.7159557342529,11.7235898971558,11.7312345504761,11.7388887405396,11.7657489776611,11.8257465362549,11.8863592147827,11.9475965499878,12.0094709396362,12.0719900131226,12.1351633071899,12.1990013122559,12.2635145187378,12.3287134170532,12.3946094512939,12.4612140655518,12.5285377502441,12.5965938568115,12.6653928756714,12.7349472045898,12.805269241333,12.8763732910156,12.9482564926147,13.0209302902222,13.094425201416,13.1166877746582,13.1213388442993,13.1259937286377,13.1306524276733,13.1353139877319,13.1399784088135,13.1446466445923,13.149317741394,13.1539926528931,13.158670425415,13.1633520126343,13.1680364608765,13.1727247238159,13.1774158477783,13.182110786438,13.1868085861206,13.1915102005005,13.1962146759033,13.2009229660034,13.2056341171265,13.2103490829468,13.2150678634644,13.2197895050049,13.2245140075684,13.2292423248291,13.2339735031128,13.2387094497681,13.2434482574463,13.2481889724731,13.2529344558716,13.2576837539673,13.2624359130859,13.2671909332275,13.2719497680664,13.2767124176025,13.2814779281616,13.286247253418,13.2910194396973,13.2957954406738,13.3005752563477,13.3053579330444,13.3101444244385,13.3149337768555,13.3197269439697,13.3245239257812,13.32932472229,13.3341274261475,13.3389348983765,13.3437452316284,13.3485593795776,13.3533763885498,13.3581981658936,13.3630218505859,13.3678503036499,13.3726816177368,13.377516746521,13.3823547363281,13.3871965408325,13.3920421600342,13.3968906402588,13.4017429351807,13.4065990447998,13.4114589691162,13.4163217544556,13.4211883544922,13.4260578155518,13.4309320449829,13.435809135437,13.4406900405884,13.4455738067627,13.4504613876343,13.4553527832031,13.4602479934692,13.4651460647583,13.4700479507446,13.4749536514282,13.4798631668091,13.4847755432129,13.489691734314,13.4946117401123,13.4995355606079,13.5044622421265,13.5093927383423,13.5143270492554,13.5192651748657,13.525897026062,13.5343294143677,13.5427722930908,13.5512256622314,13.5596895217896,13.5681648254395,13.5766496658325,13.5851459503174,13.5936527252197,13.6021699905396,13.6106977462769,13.6192359924316,13.6277856826782,13.6363458633423,13.6449165344238,13.6534976959229,13.6620903015137,13.670693397522,13.6793079376221,13.6879329681396,13.6965684890747,13.7052154541016,13.7138729095459,13.722541809082,13.7312211990356,13.7399120330811,13.7486133575439,13.7573261260986,13.7660493850708,13.7747840881348,13.7835302352905,13.7922868728638,13.8010549545288,13.8098335266113,13.81862449646,13.8274259567261,13.836238861084,13.8450622558594,13.8538980484009,13.8627443313599,13.8716020584106,13.8804712295532,13.8893518447876,13.8982439041138,13.9071474075317,13.9160623550415,13.9249887466431,13.9339256286621,13.9428749084473,13.9518356323242,13.960807800293,13.9722719192505,14.0047540664673,14.0373868942261,14.0701723098755,14.1031122207642,14.1362056732178,14.169454574585,14.2028608322144,14.2364253997803,14.2701482772827,14.3040313720703,14.3380756378174,14.3722829818726,14.4066534042358,14.4411888122559,14.4928874969482,14.5536308288574,14.6148862838745,14.6766586303711,14.7389554977417,14.8017835617065,14.8651494979858,14.9290599822998,14.9935235977173,15.0585451126099,15.1241331100464,15.1902952194214,15.2570390701294,15.3243722915649,15.3923015594482,15.4608364105225,15.5299835205078,15.5997524261475,15.6701507568359,15.7411880493164,15.8128719329834,16.8625049591064,17.0410480499268,17.2234134674072,17.4096946716309,17.5848445892334,17.73703956604,17.8918914794922,18.0494709014893,18.230375289917,18.452241897583,0,0,0,0,0,0,0,0,0,0,0,0,0,0,0,0,0,0,0,0,0,0,0,0,0,0,0,0,0,0
13.0974264144897,13.09716796875,13.0969095230103,13.0966510772705,13.0963926315308,13.096134185791,13.0958757400513,13.0956172943115,13.0953598022461,13.0951013565063,13.0948429107666,13.0945844650269,13.0943260192871,13.0940675735474,13.0938091278076,13.0935506820679,13.0455102920532,13.0452527999878,13.0449962615967,13.0447387695312,13.0444812774658,9.08194351196289,9.07337951660156,9.06664085388184,9.07182025909424,9.07700634002686,9.08219432830811,9.09511184692383,9.11185073852539,9.13214015960693,13.2717952728271,13.2715330123901,13.2712717056274,13.2710094451904,13.2707481384277,13.270486831665,13.270224571228,13.2699632644653,13.2697010040283,13.2694396972656,13.2691783905029,13.2689161300659,13.2686548233032,13.2683935165405,13.2681312561035,13.2678699493408,13.2676086425781,11.6073894500732,11.6071605682373,11.6069316864014,11.6067028045654,11.6064739227295,11.6062450408936,11.6060161590576,11.6057872772217,11.6055583953857,11.6053295135498,11.6051006317139,11.6048717498779,11.604642868042,11.6044149398804,11.6041860580444,11.6039571762085,11.6037282943726,11.6034994125366,11.6032705307007,11.6030426025391,11.6028137207031,11.6025848388672,11.6023559570312,11.6021270751953,11.6018991470337,11.6016702651978,11.6014413833618,11.6012125015259,11.6009845733643,11.6007556915283,11.6005268096924,11.6002988815308,11.6000699996948,11.5998411178589,11.5996131896973,11.5993843078613,11.5991554260254,11.5989274978638,11.5986986160278,11.5984697341919,11.5982418060303,11.5980129241943,11.5977849960327,11.5975561141968,11.5973272323608,11.5970993041992,11.5968704223633,11.5966424942017,11.5964136123657,11.5961856842041,11.5959568023682,11.5957288742065,11.5954999923706,11.595272064209,11.595043182373,11.5948152542114,11.5945863723755,11.5943584442139,11.5941295623779,11.5939016342163,11.5936737060547,11.5934448242188,11.5932168960571,11.5929880142212,11.5927600860596,11.5925321578979,11.592303276062,11.5920753479004,11.5918474197388,11.5916185379028,11.5913906097412,11.5911626815796,11.590934753418,11.5927963256836,11.6158180236816,11.6389312744141,11.6621370315552,11.6750030517578,11.6825847625732,11.6901760101318,11.6977767944336,11.7053871154785,11.7130079269409,11.7206382751465,11.7282791137695,11.7657871246338,11.8257856369019,11.886399269104,11.9476375579834,12.0095129013062,12.0720329284668,12.1352062225342,12.1990451812744,12.2635583877563,12.3287582397461,12.3946542739868,12.4612598419189,12.5285844802856,12.5966396331787,12.6654396057129,12.7349939346313,12.8053178787231,12.8764219284058,12.9483079910278,13.0209827423096,13.0740566253662,13.0786781311035,13.0833024978638,13.0879306793213,13.0925617218018,13.0971956253052,13.1018342971802,13.1064748764038,13.1111192703247,13.1157665252686,13.1204175949097,13.1250715255737,13.1297292709351,13.1343898773193,13.1390542984009,13.1437215805054,13.1483917236328,13.1530656814575,13.1577434539795,13.1624240875244,13.1671085357666,13.1717958450317,13.1764860153198,13.1811800003052,13.1858777999878,13.1905784606934,13.1952829360962,13.199990272522,13.204701423645,13.209415435791,13.21413230896,13.2188529968262,13.2235774993896,13.2283058166504,13.2330360412598,13.2377710342407,13.2425088882446,13.2472496032715,13.2519941329956,13.256742477417,13.2614936828613,13.2662487030029,13.2710065841675,13.2757692337036,13.2805337905884,13.2853021621704,13.2900743484497,13.294849395752,13.2996282577515,13.3044099807739,13.309196472168,13.3139848709106,13.3187780380249,13.3235740661621,13.3283729553223,13.3331756591797,13.3379821777344,13.3427925109863,13.3476057052612,13.3524217605591,13.3572425842285,13.3620662689209,13.3668937683105,13.3717241287231,13.376558303833,13.3813962936401,13.3862371444702,13.3910818099976,13.3959302902222,13.4007816314697,13.4056377410889,13.4104957580566,13.415358543396,13.4202241897583,13.4250936508179,13.4299659729004,13.4348430633545,13.4397220611572,13.4446058273315,13.4494934082031,13.4545488357544,13.4628925323486,13.4712467193604,13.4796113967896,13.4879865646362,13.4963712692261,13.5047674179077,13.5131731033325,13.5215902328491,13.5300168991089,13.5384550094604,13.5469026565552,13.5553617477417,13.5638313293457,13.5723114013672,13.5808010101318,13.5893030166626,13.5978145599365,13.6063365936279,13.6148700714111,13.6234140396118,13.63196849823,13.6405334472656,13.6491098403931,13.657696723938,13.6662940979004,13.6749029159546,13.6835222244263,13.6921520233154,13.7007932662964,13.7094459533691,13.7181081771851,13.7267827987671,13.7354679107666,13.7441635131836,13.7528705596924,13.7615880966187,13.7703170776367,13.7790575027466,13.7878084182739,13.7965707778931,13.805344581604,13.8141288757324,13.8229246139526,13.8317317962646,13.8405504226685,13.8493795394897,13.8582210540771,13.867073059082,13.8759365081787,13.8848114013672,13.8936967849731,13.9025945663452,13.9115037918091,13.9204235076904,13.9293556213379,13.9382991790771,13.9472532272339,13.9702234268188,14.0026950836182,14.0353193283081,14.0680952072144,14.1010246276855,14.134108543396,14.16734790802,14.2007446289062,14.2342987060547,14.2680110931396,14.3018846511841,14.3359184265137,14.3701152801514,14.4044752120972,14.4390001296997,14.4736909866333,14.5201377868652,14.5811109542847,14.6425971984863,14.7046051025391,14.7671394348145,14.8302087783813,14.8938188552856,14.9579772949219,15.0226907730103,15.087965965271,15.1538114547729,15.2202348709106,15.28724193573,15.3548421859741,15.4230422973633,15.4918518066406,15.5612773895264,15.6313285827637,15.7020130157471,15.7733402252197,16.8783988952637,17.057279586792,17.2399940490723,17.4266567230225,17.6082439422607,17.7608451843262,17.9161148071289,18.0741233825684,18.2463455200195,18.4600677490234,0,0,0,0,0,0,0,0,0,0,0,0,0,0,0,0,0,0,0,0,0,0,0,0,0,0,0,0,0
13.0973672866821,13.0971088409424,13.0968503952026,13.0965919494629,13.0963335037231,13.0960750579834,13.0958166122437,13.0955581665039,13.0952997207642,13.0950412750244,13.0947828292847,13.0945243835449,13.0942659378052,13.0940084457397,13.09375,13.0934915542603,13.0454511642456,13.0451936721802,13.0449361801147,13.0446796417236,13.0444221496582,9.08188438415527,9.07332038879395,9.06661128997803,9.07179069519043,9.07697582244873,9.0821647644043,9.09510517120361,9.11184406280518,9.13241386413574,13.2717342376709,13.2714729309082,13.2712106704712,13.2709493637085,13.2706880569458,13.2704257965088,13.2701644897461,13.2699022293091,13.2696409225464,13.2693796157837,13.2691173553467,13.268856048584,13.2685947418213,13.2683324813843,13.2680711746216,13.2678098678589,13.2675476074219,11.6073360443115,11.6071071624756,11.6068782806396,11.6066493988037,11.6064205169678,11.6061916351318,11.6059627532959,11.6057348251343,11.6055059432983,11.6052770614624,11.6050481796265,11.6048192977905,11.6045904159546,11.6043615341187,11.6041326522827,11.6039047241211,11.6036758422852,11.6034469604492,11.6032180786133,11.6029891967773,11.6027603149414,11.6025323867798,11.6023035049438,11.6020746231079,11.601845741272,11.6016178131104,11.6013889312744,11.6011600494385,11.6009311676025,11.6007032394409,11.600474357605,11.600245475769,11.6000175476074,11.5997886657715,11.5995597839355,11.5993318557739,11.599102973938,11.5988740921021,11.5986461639404,11.5984172821045,11.5981893539429,11.5979604721069,11.597731590271,11.5975036621094,11.5972747802734,11.5970468521118,11.5968179702759,11.5965900421143,11.5963611602783,11.5961322784424,11.5959043502808,11.5956754684448,11.5954475402832,11.5952186584473,11.5949907302856,11.594762802124,11.5945339202881,11.5943059921265,11.5940771102905,11.5938491821289,11.593620300293,11.5933923721313,11.5931644439697,11.5929355621338,11.5927076339722,11.5924787521362,11.5922508239746,11.592022895813,11.5917940139771,11.5915660858154,11.5913381576538,11.5911102294922,11.5908813476562,11.5929899215698,11.6160125732422,11.6391267776489,11.6569509506226,11.6645088195801,11.6720762252808,11.6796541213989,11.6872406005859,11.6948385238647,11.7024450302124,11.7100620269775,11.7176885604858,11.7658262252808,11.8258247375488,11.886438369751,11.9476795196533,12.0095548629761,12.0720748901367,12.1352491378784,12.1990880966187,12.2636022567749,12.328803062439,12.394700050354,12.4613046646118,12.5286302566528,12.5966863632202,12.6654863357544,12.7350416183472,12.805365562439,12.8764705657959,12.9483585357666,13.0210342407227,13.0362939834595,13.0408878326416,13.045485496521,13.0500869750977,13.0546913146973,13.0592994689941,13.063910484314,13.0685243606567,13.0731420516968,13.0777626037598,13.0823860168457,13.0870141983032,13.0916442871094,13.0962772369385,13.1009149551392,13.1055555343628,13.1101989746094,13.1148452758789,13.11949634552,13.1241493225098,13.1288061141968,13.1334667205811,13.1381301879883,13.1427965164185,13.1474666595459,13.1521396636963,13.1568164825439,13.1614971160889,13.1661806106567,13.1708669662476,13.1755571365356,13.1802501678467,13.184947013855,13.1896476745605,13.1943502426147,13.1990575790405,13.2037677764893,13.2084808349609,13.2131977081299,13.2179183959961,13.2226419448853,13.2273683547974,13.2320985794067,13.2368326187134,13.241569519043,13.2463111877441,13.2510547637939,13.255802154541,13.260552406311,13.2653064727783,13.2700643539429,13.2748250961304,13.2795896530151,13.2843570709229,13.2891283035278,13.2939033508301,13.2986812591553,13.3034629821777,13.3082475662231,13.3130359649658,13.3178281784058,13.3226232528687,13.3274221420288,13.3322248458862,13.3370304107666,13.3418388366699,13.3466520309448,13.3514680862427,13.3562870025635,13.3611106872559,13.3659372329712,13.3707666397095,13.375599861145,13.3804378509521,13.3852777481079,13.3922061920166,13.4004726409912,13.4087495803833,13.4170370101929,13.4253339767456,13.4336414337158,13.4419593811035,13.4502878189087,13.458625793457,13.4669752120972,13.4753341674805,13.4837036132812,13.4920835494995,13.5004739761353,13.5088748931885,13.5172863006592,13.5257081985474,13.534140586853,13.5425825119019,13.5510358810425,13.5594997406006,13.5679750442505,13.5764598846436,13.5849552154541,13.5934619903564,13.601978302002,13.6105060577393,13.619044303894,13.6275939941406,13.6361532211304,13.6447238922119,13.6533060073853,13.6618976593018,13.6705007553101,13.6791143417358,13.6877393722534,13.6963748931885,13.705020904541,13.7136783599854,13.7223472595215,13.7310266494751,13.7397165298462,13.7484178543091,13.7571306228638,13.7658538818359,13.7745876312256,13.7833337783813,13.7920904159546,13.8008584976196,13.8096370697021,13.8184270858765,13.8272285461426,13.8360414505005,13.8448648452759,13.8536996841431,13.8625459671021,13.8714036941528,13.8802728652954,13.8891525268555,13.8980445861816,13.9069480895996,13.9158620834351,13.9247884750366,13.9358625411987,13.9681749343872,14.0006380081177,14.0332517623901,14.0660181045532,14.0989379882812,14.1320123672485,14.1652412414551,14.1986284255981,14.2321720123291,14.2658748626709,14.2997379302979,14.3337621688843,14.3679485321045,14.4022979736328,14.4368124008179,14.471492767334,14.5063400268555,14.5474910736084,14.6086940765381,14.6704139709473,14.7326583862305,14.7954320907593,14.8587436676025,14.9225997924805,14.987006187439,15.0519714355469,15.1175031661987,15.1836071014404,15.2502918243408,15.3175649642944,15.3854341506958,15.4539070129395,15.5229921340942,15.592698097229,15.6630334854126,15.7340049743652,15.8056240081787,17.0735416412354,17.2566070556641,17.443639755249,17.631706237793,17.7847156524658,17.9404048919678,18.0988445281982,18.2623443603516,18.4678993225098,0,0,0,0,0,0,0,0,0,0,0,0,0,0,0,0,0,0,0,0,0,0,0,0,0,0,0,0
13.0973072052002,13.0970487594604,13.0967903137207,13.096531867981,13.0962734222412,13.0960149765015,13.0957565307617,13.095498085022,13.0952396392822,13.0949821472168,13.0947237014771,13.0944652557373,13.0942068099976,13.0939483642578,13.0936899185181,13.0934314727783,13.045392036438,13.0451345443726,13.0448770523071,13.0446195602417,13.0443630218506,9.08182525634766,9.07326221466064,9.0665807723999,9.0717601776123,9.07694530487061,9.08213424682617,9.0950984954834,9.11183738708496,9.13268661499023,13.271674156189,13.2714128494263,13.2711505889893,13.2708892822266,13.2706270217896,13.2703657150269,13.2701034545898,13.2698421478271,13.2695808410645,13.2693185806274,13.2690572738647,13.2687959671021,13.268533706665,13.2682723999023,13.2680110931396,13.2677488327026,13.2674875259399,11.6072835922241,11.6070547103882,11.6068258285522,11.6065969467163,11.6063680648804,11.6061391830444,11.6059103012085,11.6056814193726,11.6054525375366,11.6052236557007,11.6049947738647,11.6047668457031,11.6045379638672,11.6043090820312,11.6040802001953,11.6038513183594,11.6036224365234,11.6033945083618,11.6031656265259,11.6029367446899,11.602707862854,11.6024789810181,11.6022510528564,11.6020221710205,11.6017932891846,11.6015644073486,11.601336479187,11.6011075973511,11.6008787155151,11.6006498336792,11.6004219055176,11.6001930236816,11.5999641418457,11.5997362136841,11.5995073318481,11.5992784500122,11.5990505218506,11.5988216400146,11.5985927581787,11.5983648300171,11.5981359481812,11.5979080200195,11.5976791381836,11.5974502563477,11.597222328186,11.5969934463501,11.5967655181885,11.5965366363525,11.5963087081909,11.596079826355,11.5958518981934,11.5956230163574,11.5953950881958,11.5951662063599,11.5949382781982,11.5947093963623,11.5944814682007,11.5942525863647,11.5940246582031,11.5937967300415,11.5935678482056,11.5933399200439,11.593111038208,11.5928831100464,11.5926551818848,11.5924263000488,11.5921983718872,11.5919694900513,11.5917415618896,11.591513633728,11.5912857055664,11.5910568237305,11.5908288955688,11.5931844711304,11.6162080764771,11.638955116272,11.6464891433716,11.6540336608887,11.6615877151489,11.6691513061523,11.6767244338989,11.684308052063,11.6919012069702,11.6995038986206,11.7071170806885,11.7658653259277,11.8258647918701,11.8864793777466,11.9477214813232,12.0095977783203,12.072117805481,12.1352920532227,12.1991319656372,12.2636461257935,12.3288469314575,12.3947448730469,12.461350440979,12.52867603302,12.5967330932617,12.6655330657959,12.735089302063,12.8054132461548,12.8765182495117,12.9484100341797,12.9941825866699,12.9987478256226,13.0033159255981,13.007887840271,13.0124616622925,13.0170402526855,13.0216207504272,13.0262050628662,13.0307931900024,13.0353841781616,13.0399780273438,13.0445747375488,13.0491752624512,13.0537796020508,13.058385848999,13.0629968643188,13.0676097869873,13.072226524353,13.076847076416,13.0814695358276,13.0860967636108,13.090726852417,13.0953598022461,13.0999956130981,13.1046361923218,13.109278678894,13.1139249801636,13.1185741424561,13.1232280731201,13.1278839111328,13.1325426101685,13.1372060775757,13.1418724060059,13.146541595459,13.1512136459351,13.1558904647827,13.160569190979,13.1652517318726,13.1699380874634,13.1746273040771,13.1793203353882,13.1840162277222,13.1887159347534,13.1934185028076,13.1981248855591,13.2028341293335,13.2075471878052,13.2122631072998,13.2169828414917,13.2217054367065,13.2264318466187,13.231162071228,13.2358951568604,13.2406311035156,13.2453708648682,13.250114440918,13.2548608779907,13.2596111297607,13.2643642425537,13.2691211700439,13.2738819122314,13.2786455154419,13.2834129333496,13.2881832122803,13.2929573059082,13.2977342605591,13.3025150299072,13.3072996139526,13.312087059021,13.3168783187866,13.3222579956055,13.3304386138916,13.3386297225952,13.346830368042,13.3550405502319,13.3632612228394,13.3714923858643,13.3797330856323,13.3879842758179,13.3962459564209,13.4045171737671,13.4127988815308,13.4210910797119,13.4293937683105,13.4377059936523,13.4460287094116,13.4543619155884,13.4627056121826,13.4710597991943,13.4794235229492,13.4877986907959,13.4961833953857,13.5045785903931,13.5129852294922,13.5214014053345,13.5298280715942,13.5382652282715,13.5467138290405,13.5551719665527,13.5636405944824,13.5721206665039,13.5806112289429,13.5891122817993,13.5976238250732,13.6061458587646,13.6146783828735,13.6232223510742,13.6317768096924,13.640341758728,13.6489171981812,13.6575040817261,13.6661014556885,13.6747093200684,13.68332862854,13.6919584274292,13.7005996704102,13.7092514038086,13.7179145812988,13.7265882492065,13.7352724075317,13.7439680099487,13.7526750564575,13.7613925933838,13.7701215744019,13.7788610458374,13.7876119613647,13.7963743209839,13.8051481246948,13.8139324188232,13.8227281570435,13.8315343856812,13.840353012085,13.8491821289062,13.8580226898193,13.8668746948242,13.8757371902466,13.8846120834351,13.893497467041,13.9023952484131,13.9113035202026,13.9338245391846,13.9661273956299,13.9985809326172,14.0311851501465,14.0639419555664,14.0968523025513,14.1299161911011,14.1631364822388,14.19651222229,14.2300462722778,14.2637395858765,14.2975921630859,14.3316059112549,14.3657817840576,14.4001216888428,14.4346256256104,14.469295501709,14.504132270813,14.5391368865967,14.5749473571777,14.6363821029663,14.6983366012573,14.7608184814453,14.8238334655762,14.8873891830444,14.951491355896,15.0161485671997,15.0813674926758,15.1471548080444,15.2135190963745,15.2804670333862,15.3480072021484,15.4161472320557,15.4848947525024,15.5542583465576,15.6242456436157,15.6948661804199,15.7661285400391,17.0898361206055,17.2732524871826,17.4606475830078,17.6520938873291,17.808650970459,17.9647617340088,18.1236324310303,18.2853393554688,18.4788379669189,0,0,0,0,0,0,0,0,0,0,0,0,0,0,0,0,0,0,0,0,0,0,0,0,0,0,0
13.0972480773926,13.0969896316528,13.0967311859131,13.0964727401733,13.0962142944336,13.0959558486938,13.0956974029541,13.0954389572144,13.0951805114746,13.0949220657349,13.0946636199951,13.0944051742554,13.0941467285156,13.0938882827759,13.0936307907104,13.0933723449707,13.0453319549561,13.0450744628906,13.0448179244995,13.0445604324341,13.0443029403687,9.08176708221436,9.07320308685303,9.06655025482178,9.07172966003418,9.0769157409668,9.08210372924805,9.09509181976318,9.11183166503906,9.13296031951904,13.271614074707,13.27135181427,13.2710905075073,13.2708282470703,13.2705669403076,13.2703046798706,13.2700433731079,13.2697820663452,13.2695198059082,13.2692584991455,13.2689971923828,13.2687349319458,13.2684736251831,13.2682123184204,13.2679500579834,13.2676887512207,13.267427444458,11.6072301864624,11.6070013046265,11.6067724227905,11.6065444946289,11.606315612793,11.606086730957,11.6058578491211,11.6056289672852,11.6054000854492,11.6051712036133,11.6049423217773,11.6047134399414,11.6044845581055,11.6042566299438,11.6040277481079,11.603798866272,11.603569984436,11.6033411026001,11.6031122207642,11.6028842926025,11.6026554107666,11.6024265289307,11.6021976470947,11.6019687652588,11.6017408370972,11.6015119552612,11.6012830734253,11.6010541915894,11.6008262634277,11.6005973815918,11.6003684997559,11.6001405715942,11.5999116897583,11.5996828079224,11.5994548797607,11.5992259979248,11.5989971160889,11.5987691879272,11.5985403060913,11.5983123779297,11.5980834960938,11.5978546142578,11.5976266860962,11.5973978042603,11.5971698760986,11.5969409942627,11.5967130661011,11.5964841842651,11.5962553024292,11.5960273742676,11.5957984924316,11.59557056427,11.5953416824341,11.5951137542725,11.5948848724365,11.5946569442749,11.5944290161133,11.5942001342773,11.5939722061157,11.5937433242798,11.5935153961182,11.5932865142822,11.5930585861206,11.592830657959,11.592601776123,11.5923738479614,11.5921459197998,11.5919170379639,11.5916891098022,11.5914611816406,11.5912322998047,11.5910043716431,11.5907764434814,11.5933790206909,11.6164026260376,11.6285247802734,11.6360454559326,11.6435766220093,11.6511163711548,11.6586666107178,11.6662273406982,11.6737966537476,11.6813764572144,11.6889657974243,11.7065114974976,11.7659044265747,11.8259038925171,11.8865213394165,11.9477634429932,12.0096397399902,12.0721607208252,12.1353359222412,12.1991748809814,12.263689994812,12.3288917541504,12.3947896957397,12.4613962173462,12.5287218093872,12.5967788696289,12.6655797958374,12.7351369857788,12.8054609298706,12.8765668869019,12.9484615325928,12.9568786621094,12.9614171981812,12.9659595489502,12.9705047607422,12.9750528335571,12.9796047210693,12.9841594696045,12.9887180328369,12.993278503418,12.9978427886963,13.0024108886719,13.0069818496704,13.0115556716919,13.0161323547363,13.0207138061523,13.025297164917,13.0298833847046,13.0344743728638,13.0390672683716,13.0436639785767,13.0482635498047,13.05286693573,13.0574731826782,13.0620832443237,13.0666961669922,13.0713119506836,13.0759315490723,13.0805540084839,13.0851793289185,13.0898094177246,13.0944414138794,13.0990772247314,13.1037168502808,13.1083583831787,13.1130046844482,13.1176528930664,13.1223058700562,13.1269607543945,13.1316194534302,13.1362819671631,13.1409473419189,13.1456165313721,13.1502885818481,13.1549634933472,13.1596422195435,13.1643238067627,13.1690101623535,13.173698425293,13.1783905029297,13.1830854415894,13.1877841949463,13.1924867630005,13.1971921920776,13.2019014358521,13.2066135406494,13.2113285064697,13.2160472869873,13.2207698822021,13.2254953384399,13.230224609375,13.234956741333,13.2396926879883,13.2444324493408,13.2491750717163,13.2539205551147,13.2611331939697,13.2692384719849,13.2773542404175,13.2854795455933,13.2936143875122,13.3017597198486,13.3099155426025,13.3180809020996,13.3262557983398,13.3344411849976,13.3426361083984,13.3508415222168,13.3590574264526,13.3672828674316,13.3755187988281,13.3837652206421,13.3920211791992,13.4002876281738,13.4085645675659,13.4168510437012,13.4251480102539,13.4334554672241,13.4417724609375,13.4501008987427,13.458438873291,13.4667873382568,13.4751462936401,13.4835157394409,13.4918956756592,13.5002861022949,13.5086860656738,13.5170974731445,13.5255184173584,13.5339508056641,13.5423936843872,13.5508470535278,13.5593099594116,13.5677843093872,13.5762691497803,13.5847644805908,13.5932712554932,13.6017875671387,13.610315322876,13.6188535690308,13.627402305603,13.6359615325928,13.6445322036743,13.6531133651733,13.6617050170898,13.6703081130981,13.6789216995239,13.6875457763672,13.6961812973022,13.7048273086548,13.7134847640991,13.7221527099609,13.7308311462402,13.7395219802856,13.7482223510742,13.7569351196289,13.7656583786011,13.7743921279907,13.7831373214722,13.7918939590454,13.8006610870361,13.8094396591187,13.818229675293,13.8270311355591,13.8358430862427,13.8446664810181,13.8535013198853,13.8623476028442,13.871205329895,13.8800735473633,13.8889541625977,13.8996429443359,13.9317874908447,13.9640808105469,13.996524810791,14.0291194915771,14.0618667602539,14.0947666168213,14.1278209686279,14.1610307693481,14.1943969726562,14.2279214859009,14.261604309082,14.2954473495483,14.3294506072998,14.3636159896851,14.3979454040527,14.4324388504028,14.467098236084,14.5019245147705,14.5369186401367,14.5720815658569,14.6074161529541,14.6641750335693,14.7263660430908,14.7890863418579,14.8523435592651,14.9161443710327,14.9804954528809,15.0454044342041,15.1108779907227,15.1769237518311,15.2435493469238,15.3107633590698,15.3785724639893,15.4469842910767,15.5160074234009,15.5856504440308,15.6559219360352,15.7268295288086,15.7983818054199,17.2899284362793,17.4776878356934,17.6695327758789,17.8326511383057,17.9891834259033,18.1484889984131,18.310640335083,18.4950370788574,0,0,0,0,0,0,0,0,0,0,0,0,0,0,0,0,0,0,0,0,0,0,0,0,0,0
13.0971879959106,13.0969295501709,13.0966711044312,13.0964126586914,13.0961542129517,13.0958957672119,13.0956373214722,13.0953788757324,13.0951204299927,13.0948619842529,13.0946044921875,13.0943460464478,13.094087600708,13.0938291549683,13.0935707092285,13.0933122634888,13.0452728271484,13.045015335083,13.0447578430176,13.0445013046265,13.044243812561,9.08170795440674,9.07314491271973,9.06652069091797,9.07170009613037,9.07688522338867,9.08207416534424,9.09508609771729,9.11182498931885,9.13323402404785,13.2715530395508,13.2712917327881,13.2710294723511,13.2707681655884,13.2705068588257,13.2702445983887,13.269983291626,13.269721031189,13.2694597244263,13.2691984176636,13.2689361572266,13.2686748504639,13.2684135437012,13.2681512832642,13.2678899765015,13.2676286697388,13.2673664093018,11.607177734375,11.6069488525391,11.6067199707031,11.6064910888672,11.6062622070312,11.6060333251953,11.6058044433594,11.6055755615234,11.6053476333618,11.6051187515259,11.6048898696899,11.604660987854,11.6044321060181,11.6042032241821,11.6039743423462,11.6037454605103,11.6035175323486,11.6032886505127,11.6030597686768,11.6028308868408,11.6026020050049,11.6023740768433,11.6021451950073,11.6019163131714,11.6016874313354,11.6014595031738,11.6012306213379,11.601001739502,11.600772857666,11.6005449295044,11.6003160476685,11.6000871658325,11.5998592376709,11.599630355835,11.599401473999,11.5991735458374,11.5989446640015,11.5987157821655,11.5984878540039,11.598258972168,11.5980310440063,11.5978021621704,11.5975732803345,11.5973453521729,11.5971164703369,11.5968885421753,11.5966596603394,11.5964317321777,11.5962028503418,11.5959749221802,11.5957460403442,11.5955181121826,11.5952892303467,11.5950613021851,11.5948324203491,11.5946044921875,11.5943756103516,11.5941476821899,11.593918800354,11.5936908721924,11.5934629440308,11.5932340621948,11.5930061340332,11.5927772521973,11.5925493240356,11.592321395874,11.5920925140381,11.5918645858765,11.5916366577148,11.5914077758789,11.5911798477173,11.5909519195557,11.5907230377197,11.5935726165771,11.6106157302856,11.6181135177612,11.62562084198,11.6331386566162,11.6406650543213,11.6482019424438,11.6557483673096,11.6633043289185,11.6708707809448,11.67844581604,11.7065496444702,11.7659435272217,11.8259439468384,11.8865623474121,11.9478044509888,12.0096817016602,12.0722026824951,12.1353788375854,12.19921875,12.2637338638306,12.3289356231689,12.3948345184326,12.4614410400391,12.5287675857544,12.5968255996704,12.6656265258789,12.7351837158203,12.8055095672607,12.876615524292,12.9152784347534,12.9197883605957,12.9243011474609,12.9288167953491,12.9333362579346,12.937858581543,12.9423847198486,12.9469127655029,12.9514446258545,12.9559803009033,12.9605178833008,12.9650592803955,12.9696035385132,12.9741516113281,12.9787034988403,12.9832572937012,12.987813949585,12.9923753738403,12.9969387054443,13.0015058517456,13.0060758590698,13.0106496810913,13.0152254104614,13.0198059082031,13.0243883132935,13.0289754867554,13.0335645675659,13.0381574630737,13.0427532196045,13.0473527908325,13.0519552230835,13.0565605163574,13.0611696243286,13.0657815933228,13.0703973770142,13.0750160217285,13.0796375274658,13.0842628479004,13.0888919830322,13.093523979187,13.0981588363647,13.1027975082397,13.1074390411377,13.1120834350586,13.1167316436768,13.1213836669922,13.1260385513306,13.1306962966919,13.1353578567505,13.140022277832,13.1446914672852,13.1493625640869,13.1540374755859,13.1587152481079,13.1633968353271,13.1680812835693,13.1727695465088,13.1774606704712,13.1821556091309,13.1868534088135,13.1925439834595,13.2005662918091,13.2085971832275,13.2166385650635,13.2246904373169,13.2327508926392,13.2408218383789,13.2489023208618,13.2569932937622,13.2650938034058,13.2732038497925,13.2813243865967,13.289454460144,13.2975950241089,13.3057451248169,13.3139047622681,13.3220748901367,13.3302555084229,13.3384456634521,13.3466463088989,13.3548564910889,13.3630771636963,13.3713073730469,13.3795480728149,13.3877992630005,13.3960599899292,13.4043321609497,13.4126129150391,13.4209051132202,13.4292068481445,13.4375190734863,13.4458417892456,13.4541749954224,13.4625186920166,13.470871925354,13.4792356491089,13.4876108169556,13.4959955215454,13.5043907165527,13.5127964019775,13.5212125778198,13.5296392440796,13.5380764007568,13.5465240478516,13.5549821853638,13.5634508132935,13.5719308853149,13.5804204940796,13.588921546936,13.5974321365356,13.6059541702271,13.6144866943359,13.6230306625366,13.6315841674805,13.6401491165161,13.6487245559692,13.6573114395142,13.6659088134766,13.6745166778564,13.6831350326538,13.691764831543,13.7004060745239,13.7090578079224,13.7177200317383,13.726393699646,13.7350778579712,13.7437734603882,13.7524795532227,13.7611970901489,13.769926071167,13.7786655426025,13.7874164581299,13.7961778640747,13.8049507141113,13.8137350082397,13.82253074646,13.8313369750977,13.8401546478271,13.8489837646484,13.8578243255615,13.8666753768921,13.8755388259888,13.8976154327393,13.9297504425049,13.9620342254639,13.9944686889648,14.0270538330078,14.0597915649414,14.0926818847656,14.1257266998291,14.1589269638062,14.1922826766968,14.2257966995239,14.2594699859619,14.2933025360107,14.3272953033447,14.3614511489868,14.395770072937,14.4302530288696,14.4649019241333,14.4997177124023,14.5347013473511,14.5698537826538,14.6051769256592,14.6406717300415,14.6920738220215,14.7545022964478,14.8174638748169,14.8809642791748,14.945011138916,15.0096120834351,15.0747737884521,15.1405038833618,15.2068099975586,15.2736988067627,15.341178894043,15.4092578887939,15.4779443740845,15.5472450256348,15.617169380188,15.687726020813,15.7589225769043,17.3066387176514,17.4947624206543,17.6870059967041,17.8567142486572,18.013671875,18.1734142303467,18.3360137939453,18.5112648010254,0,0,0,0,0,0,0,0,0,0,0,0,0,0,0,0,0,0,0,0,0,0,0,0,0
13.0971279144287,13.096869468689,13.0966110229492,13.0963535308838,13.096095085144,13.0958366394043,13.0955781936646,13.0953197479248,13.0950613021851,13.0948028564453,13.0945444107056,13.0942859649658,13.0940275192261,13.0937690734863,13.0935115814209,13.0932531356812,13.0452136993408,13.0449562072754,13.04469871521,13.0444412231445,13.0441846847534,9.08164882659912,9.07308578491211,9.06649017333984,9.07166957855225,9.07685470581055,9.08204364776611,9.09507942199707,9.11181831359863,9.13350772857666,13.2714929580688,13.2712306976318,13.2709693908691,13.2707080841064,13.2704458236694,13.2701845169067,13.2699222564697,13.269660949707,13.2693996429443,13.2691373825073,13.2688760757446,13.2686147689819,13.2683525085449,13.2680912017822,13.2678298950195,13.2675676345825,13.2673063278198,11.6071252822876,11.6068964004517,11.6066675186157,11.6064386367798,11.6062097549438,11.6059808731079,11.605751991272,11.605523109436,11.6052942276001,11.6050653457642,11.6048364639282,11.6046085357666,11.6043796539307,11.6041507720947,11.6039218902588,11.6036930084229,11.6034641265869,11.603235244751,11.6030073165894,11.6027784347534,11.6025495529175,11.6023206710815,11.6020927429199,11.601863861084,11.601634979248,11.6014060974121,11.6011781692505,11.6009492874146,11.6007204055786,11.6004915237427,11.6002635955811,11.6000347137451,11.5998058319092,11.5995779037476,11.5993490219116,11.5991201400757,11.5988922119141,11.5986633300781,11.5984354019165,11.5982065200806,11.5979776382446,11.597749710083,11.5975208282471,11.5972929000854,11.5970640182495,11.5968351364136,11.596607208252,11.596378326416,11.5961503982544,11.5959215164185,11.5956935882568,11.5954647064209,11.5952367782593,11.5950078964233,11.5947799682617,11.5945510864258,11.5943231582642,11.5940952301025,11.5938663482666,11.593638420105,11.593409538269,11.5931816101074,11.5929536819458,11.5927248001099,11.5924968719482,11.5922679901123,11.5920400619507,11.5918121337891,11.5915832519531,11.5913553237915,11.5911273956299,11.5908985137939,11.5906705856323,11.5927619934082,11.6002368927002,11.6077213287354,11.6152153015137,11.6227188110352,11.6302318572998,11.6377553939819,11.6452884674072,11.6528310775757,11.6603832244873,11.6679458618164,11.7065877914429,11.7659826278687,11.825984954834,11.8866033554077,11.9478464126587,12.0097236633301,12.0722455978394,12.1354217529297,12.1992626190186,12.2637786865234,12.3289804458618,12.3948793411255,12.4614868164062,12.5288133621216,12.5968723297119,12.6656742095947,12.6966285705566,12.7063131332397,12.7160129547119,12.7257270812988,12.7354555130005,12.7451992034912,12.754958152771,12.7647314071655,12.7745208740234,12.7843246459961,12.7941427230835,12.8039770126343,12.8138256072998,12.8236904144287,12.8335695266724,12.9324407577515,12.9369621276855,12.9414873123169,12.9460153579712,12.9505472183228,12.9550809860229,12.9596185684204,12.9641599655151,12.9687032699585,12.9732503890991,12.977801322937,12.9823551177979,12.9869117736816,12.9914712905884,12.9960346221924,13.0006008148193,13.0051698684692,13.0097436904907,13.0143194198608,13.0188980102539,13.0234804153442,13.0280666351318,13.0326547622681,13.0372467041016,13.0418424606323,13.046441078186,13.051043510437,13.0556478500366,13.0602560043335,13.0648679733276,13.0694828033447,13.0741004943848,13.0787220001221,13.0833463668823,13.0879745483398,13.0926055908203,13.097240447998,13.1018781661987,13.1065187454224,13.1111631393433,13.1158113479614,13.1204624176025,13.1251163482666,13.1325998306274,13.140549659729,13.1485080718994,13.1564769744873,13.164454460144,13.1724424362183,13.1804399490356,13.1884469985962,13.1964635848999,13.2044906616211,13.2125263214111,13.220573425293,13.2286291122437,13.2366952896118,13.2447710037231,13.2528562545776,13.2609510421753,13.2690563201904,13.277172088623,13.2852973937988,13.2934322357178,13.3015775680542,13.3097324371338,13.3178968429565,13.3260726928711,13.3342571258545,13.3424530029297,13.3506574630737,13.3588733673096,13.3670988082886,13.3753337860107,13.3835802078247,13.3918361663818,13.4001016616821,13.4083786010742,13.4166650772095,13.4249620437622,13.4332685470581,13.4415864944458,13.4499139785767,13.458251953125,13.4666004180908,13.4749593734741,13.4833278656006,13.4917078018188,13.5000972747803,13.5084981918335,13.5169086456299,13.5253295898438,13.5337619781494,13.5422039031982,13.5506572723389,13.5591201782227,13.5675945281982,13.5760793685913,13.5845737457275,13.5930795669556,13.6015968322754,13.6101236343384,13.6186618804932,13.6272106170654,13.6357698440552,13.6443395614624,13.6529207229614,13.6615123748779,13.6701145172119,13.6787281036377,13.687352180481,13.695987701416,13.7046337127686,13.7132902145386,13.7219581604004,13.7306365966797,13.7393264770508,13.7480278015137,13.756739616394,13.7654619216919,13.7741966247559,13.782940864563,13.7916975021362,13.800464630127,13.8092432022095,13.8180332183838,13.8268337249756,13.8356456756592,13.8444690704346,13.8533029556274,13.8636102676392,13.8955879211426,13.9277143478394,13.9599885940552,13.992413520813,14.0249891281128,14.0577163696289,14.09059715271,14.1236324310303,14.1568231582642,14.1901693344116,14.2236738204956,14.2573356628418,14.2911586761475,14.3251419067383,14.3592872619629,14.3935956954956,14.4280681610107,14.4627065658569,14.4975109100342,14.5324840545654,14.5676259994507,14.6029386520386,14.6384220123291,14.6740789413452,14.7200794219971,14.7827463150024,14.8459491729736,14.9096946716309,14.9739904403687,15.0388422012329,15.1042585372925,15.1702470779419,15.2368144989014,15.3039684295654,15.3717164993286,15.4400672912598,15.5090284347534,15.5786094665527,15.6488170623779,15.7196598052979,15.7911472320557,17.511869430542,17.7045078277588,17.8808441162109,18.0382270812988,18.1984062194824,18.3614559173584,18.527702331543,0,0,0,0,0,0,0,0,0,0,0,0,0,0,0,0,0,0,0,0,0,0,0,0
13.0651559829712,13.0648984909058,13.0646409988403,13.0643835067749,13.0641250610352,13.0638675689697,13.0636100769043,13.0633516311646,13.0630941390991,13.0628366470337,13.0625791549683,13.0623207092285,13.0620632171631,13.0618057250977,13.0615482330322,13.0612907409668,13.0451536178589,13.0419368743896,13.0411100387573,13.0443820953369,13.0441255569458,9.0815896987915,9.07302665710449,9.06646060943604,9.07163906097412,9.07682418823242,9.08201313018799,9.09507274627686,9.11181163787842,9.13378047943115,13.2714328765869,13.2711706161499,13.2709093093872,13.2706470489502,13.2703857421875,13.2701234817505,13.2698621749878,13.2696008682251,13.2693386077881,13.2690773010254,13.2688159942627,13.2685537338257,13.268292427063,13.2680311203003,13.2677688598633,13.2675075531006,13.2672462463379,11.6070718765259,11.6068429946899,11.606614112854,11.6063852310181,11.6061563491821,11.6059284210205,11.6056995391846,11.6054706573486,11.6052417755127,11.6050128936768,11.6047840118408,11.6045551300049,11.6043262481689,11.604097366333,11.6038694381714,11.6036405563354,11.6034116744995,11.6031827926636,11.6029539108276,11.602725982666,11.6024971008301,11.6022682189941,11.6020393371582,11.6018104553223,11.6015825271606,11.6013536453247,11.6011247634888,11.6008968353271,11.6006679534912,11.6004390716553,11.6002101898193,11.5999822616577,11.5997533798218,11.5995244979858,11.5992965698242,11.5990676879883,11.5988388061523,11.5986108779907,11.5983819961548,11.5981540679932,11.5979251861572,11.5976963043213,11.5974683761597,11.5972394943237,11.5970115661621,11.5967826843262,11.5965547561646,11.5963258743286,11.596097946167,11.5958690643311,11.5956411361694,11.5954122543335,11.5951843261719,11.5949554443359,11.5947275161743,11.5944986343384,11.5942707061768,11.5940418243408,11.5938138961792,11.5935859680176,11.5933570861816,11.59312915802,11.5929002761841,11.5926723480225,11.5924444198608,11.5922155380249,11.5919876098633,11.5917596817017,11.5915307998657,11.5913028717041,11.5910749435425,11.5908460617065,11.5906181335449,11.5903902053833,11.5901622772217,11.5973472595215,11.6048278808594,11.6123180389404,11.6198177337646,11.6273279190063,11.6348466873169,11.6423759460449,11.6499147415161,11.6574640274048,11.7066268920898,11.7660226821899,11.8260259628296,11.8866443634033,11.9478883743286,12.009765625,12.0722885131836,12.1354646682739,12.1993055343628,12.263822555542,12.3290243148804,12.3949241638184,12.4615316390991,12.5288591384888,12.5969181060791,12.6493816375732,12.6589956283569,12.6686248779297,12.6782684326172,12.6879262924194,12.6975994110107,12.7072868347168,12.7169895172119,12.7267074584961,12.7364387512207,12.7461862564087,12.7559480667114,12.7657251358032,12.7755174636841,12.7853240966797,12.7951459884644,12.8049812316895,12.8148317337036,12.8246974945068,12.8345785140991,12.8444747924805,12.8543863296509,12.8643131256104,12.8742542266846,12.8842124938965,12.8941850662231,12.9041728973389,12.914176940918,12.9241962432861,12.9342317581177,12.944281578064,12.9543476104736,12.9678030014038,12.9723501205444,12.9768991470337,12.9814519882202,12.986008644104,12.9905681610107,12.9951305389404,12.9996957778931,13.004264831543,13.0088367462158,13.0134124755859,13.017991065979,13.022572517395,13.0271577835083,13.0317459106445,13.036337852478,13.0409317016602,13.0455303192139,13.0501317977905,13.0547351837158,13.0593433380127,13.0653314590454,13.0731992721558,13.0810766220093,13.088963508606,13.0968589782715,13.1047658920288,13.1126804351807,13.12060546875,13.1285400390625,13.1364841461182,13.1444387435913,13.1524019241333,13.1603746414185,13.1683578491211,13.1763505935669,13.1843519210815,13.1923637390137,13.2003860473633,13.2084169387817,13.2164583206177,13.2245092391968,13.2325706481934,13.2406406402588,13.2487211227417,13.2568120956421,13.2649116516113,13.273021697998,13.2811422348022,13.2892723083496,13.2974119186401,13.3055620193481,13.3137216567993,13.321891784668,13.3300714492798,13.3382616043091,13.3464622497559,13.3546724319458,13.3628921508789,13.3711223602295,13.3793630599976,13.3876142501831,13.3958749771118,13.404146194458,13.4124279022217,13.4207191467285,13.4290208816528,13.4373331069946,13.4456558227539,13.4539880752563,13.4623308181763,13.470685005188,13.4790487289429,13.4874229431152,13.4958076477051,13.5042018890381,13.5126075744629,13.5210237503052,13.5294504165649,13.5378866195679,13.5463342666626,13.5547924041748,13.5632610321045,13.5717401504517,13.5802297592163,13.5887308120728,13.5972414016724,13.6057634353638,13.6142959594727,13.622838973999,13.6313924789429,13.6399574279785,13.6485328674316,13.6571187973022,13.6657152175903,13.6743230819702,13.6829423904419,13.6915712356567,13.7002124786377,13.7088632583618,13.7175254821777,13.7261991500854,13.7348833084106,13.7435779571533,13.7522840499878,13.7610015869141,13.7697296142578,13.7784690856934,13.7872200012207,13.7959814071655,13.8047542572021,13.8135375976562,13.8223333358765,13.8311395645142,13.8399572372437,13.86159324646,13.8935623168945,13.9256782531738,13.9579439163208,13.9903593063354,14.0229253768921,14.055643081665,14.0885143280029,14.1215391159058,14.1547193527222,14.1880559921265,14.221549987793,14.2552032470703,14.2890148162842,14.3229885101318,14.357123374939,14.3914213180542,14.4258832931519,14.4605112075806,14.4953050613403,14.5302677154541,14.5653991699219,14.600700378418,14.6361742019653,14.6718196868896,14.7076396942139,14.7481918334961,14.8110990524292,14.8745450973511,14.9385366439819,15.0030813217163,15.0681867599487,15.1338596343994,15.2001066207886,15.2669363021851,15.3343572616577,15.4023752212524,15.4709997177124,15.5402383804321,15.6100997924805,15.6805925369263,15.7517242431641,17.5331268310547,17.7220287322998,17.9050388336182,18.0628509521484,18.2234687805176,18.3869686126709,18.553430557251,0,0,0,0,0,0,0,0,0,0,0,0,0,0,0,0,0,0,0,0,0,0,0
13.0650968551636,13.0648384094238,13.0645809173584,13.064323425293,13.0640649795532,13.0638074874878,13.0635499954224,13.0632925033569,13.0630340576172,13.0627765655518,13.0625190734863,13.0622615814209,13.0620031356812,13.0617456436157,13.0614881515503,13.0612306594849,13.0430011749268,13.0215711593628,13.0337209701538,13.040018081665,13.0440654754639,9.0815315246582,9.07296848297119,9.06643009185791,9.07160949707031,9.07679462432861,9.08198356628418,9.09506607055664,9.1118049621582,9.13405418395996,13.2713718414307,13.271110534668,13.270848274231,13.2705869674683,13.2703256607056,13.2700634002686,13.2698020935059,13.2695398330688,13.2692785263062,13.2690172195435,13.2687549591064,13.2684936523438,13.2682323455811,13.267970085144,13.2677087783813,13.2674474716187,13.2671852111816,11.6070194244385,11.6067905426025,11.6065616607666,11.6063327789307,11.6061038970947,11.6058750152588,11.6056461334229,11.6054172515869,11.605188369751,11.6049604415894,11.6047315597534,11.6045026779175,11.6042737960815,11.6040449142456,11.6038160324097,11.6035871505737,11.6033592224121,11.6031303405762,11.6029014587402,11.6026725769043,11.6024436950684,11.6022157669067,11.6019868850708,11.6017580032349,11.6015291213989,11.6013011932373,11.6010723114014,11.6008434295654,11.6006145477295,11.6003866195679,11.6001577377319,11.599928855896,11.5997009277344,11.5994720458984,11.5992431640625,11.5990152359009,11.5987863540649,11.5985584259033,11.5983295440674,11.5981006622314,11.5978727340698,11.5976438522339,11.5974159240723,11.5971870422363,11.5969581604004,11.5967302322388,11.5965013504028,11.5962734222412,11.5960445404053,11.5958166122437,11.5955877304077,11.5953598022461,11.5951309204102,11.5949029922485,11.5946741104126,11.594446182251,11.5942182540894,11.5939893722534,11.5937614440918,11.5935325622559,11.5933046340942,11.5930757522583,11.5928478240967,11.5926198959351,11.5923910140991,11.5921630859375,11.5919351577759,11.5917062759399,11.5914783477783,11.5912504196167,11.5910215377808,11.5907936096191,11.5905656814575,11.5903367996216,11.59010887146,11.5898809432983,11.5944595336914,11.601936340332,11.6094226837158,11.6169185638428,11.6244249343872,11.6319398880005,11.6394653320312,11.6478672027588,11.7066650390625,11.7660627365112,11.8260669708252,11.8866863250732,11.9479303359985,12.0098085403442,12.0723304748535,12.1355075836182,12.1993494033813,12.2638664245605,12.3290691375732,12.3949689865112,12.4615774154663,12.528904914856,12.5969648361206,12.6120147705078,12.6215724945068,12.6311445236206,12.6407308578491,12.6503324508667,12.6599473953247,12.6695775985718,12.6792230606079,12.6888828277588,12.6985569000244,12.7082462310791,12.7179498672485,12.727668762207,12.7374029159546,12.7471513748169,12.7569150924683,12.7666931152344,12.7764863967896,12.7862949371338,12.7961187362671,12.8059577941895,12.8158111572266,12.8256797790527,12.8355646133423,12.8454637527466,12.8553791046143,12.8653087615967,12.8752536773682,12.885214805603,12.895191192627,12.9051828384399,12.915189743042,12.9252128601074,12.9351711273193,12.9396944046021,12.944221496582,12.948751449585,12.9532842636108,12.957820892334,12.9623603820801,12.9669027328491,12.9714488983154,12.9759979248047,12.9805507659912,12.9851055145264,12.9896640777588,12.9942255020142,12.9987916946411,13.0065355300903,13.0143327713013,13.0221395492554,13.0299549102783,13.0377807617188,13.045615196228,13.0534591674805,13.0613126754761,13.0691757202148,13.0770483016968,13.0849304199219,13.0928220748901,13.1007223129272,13.1086330413818,13.1165533065796,13.1244831085205,13.1324224472046,13.1403713226318,13.1483297348022,13.1562976837158,13.1642761230469,13.1722631454468,13.1802606582642,13.1882677078247,13.1962842941284,13.2043104171753,13.2123460769653,13.2203922271729,13.2284479141235,13.2365140914917,13.2445888519287,13.2526750564575,13.2607698440552,13.2688751220703,13.2769899368286,13.2851142883301,13.293249130249,13.3013944625854,13.309549331665,13.3177137374878,13.325888633728,13.3340740203857,13.3422689437866,13.3504734039307,13.3586893081665,13.3669137954712,13.3751497268677,13.3833951950073,13.3916511535645,13.3999166488647,13.4081926345825,13.4164791107178,13.4247760772705,13.4330825805664,13.4413995742798,13.4497270584106,13.458065032959,13.4664125442505,13.4747714996338,13.4831399917603,13.4915199279785,13.4999094009399,13.5083093643188,13.5167198181152,13.5251407623291,13.5335721969604,13.5420150756836,13.5504674911499,13.5589303970337,13.5674047470093,13.575888633728,13.5843839645386,13.5928888320923,13.6014051437378,13.6099328994751,13.6184701919556,13.6270189285278,13.6355772018433,13.6441478729248,13.6527280807495,13.661319732666,13.669921875,13.6785345077515,13.6871585845947,13.6957941055298,13.704439163208,13.713095664978,13.7217636108398,13.7304420471191,13.7391319274902,13.7478322982788,13.7565441131592,13.765266418457,13.7740001678467,13.7827453613281,13.7915010452271,13.8002681732178,13.809045791626,13.8178358078003,13.8277645111084,13.8595771789551,13.8915367126465,13.9236431121826,13.9558992385864,13.9883050918579,14.0208616256714,14.0535697937012,14.0864315032959,14.1194467544556,14.1526174545288,14.1859436035156,14.219428062439,14.2530708312988,14.2868728637695,14.3208351135254,14.3549604415894,14.3892478942871,14.4236993789673,14.4583168029785,14.4931001663208,14.5280523300171,14.5631723403931,14.5984630584717,14.6339254379272,14.6695604324341,14.7053699493408,14.7413539886475,14.7775144577026,14.839560508728,14.9032506942749,14.967490196228,15.0322866439819,15.0976457595825,15.1635761260986,15.2300844192505,15.2971782684326,15.3648672103882,15.4331569671631,15.5020561218262,15.5715742111206,15.6417179107666,15.7124967575073,17.6380786895752,17.7395839691162,17.9292984008789,18.0875396728516,18.2486000061035,18.4125537872314,0,0,0,0,0,0,0,0,0,0,0,0,0,0,0,0,0,0,0,0,0,0,0
13.0650367736816,13.0647792816162,13.0645217895508,13.064263343811,13.0640058517456,13.0637483596802,13.0634899139404,13.063232421875,13.0629749298096,13.0627174377441,13.0624589920044,13.062201499939,12.9990034103394,12.9987468719482,12.9984903335571,12.998233795166,12.999363899231,13.021580696106,13.0327501296997,13.0397996902466,13.0440063476562,9.08147239685059,9.07290935516357,9.06639957427979,9.07157897949219,9.07676410675049,9.08195304870605,9.09505939483643,9.11179828643799,9.13432788848877,13.2713117599487,13.2710494995117,13.270788192749,13.2705268859863,13.2702646255493,13.2700033187866,13.2697410583496,13.2694797515869,13.2692184448242,13.2689561843872,13.2686948776245,13.2684335708618,13.2681713104248,13.2679100036621,13.2676486968994,13.2673864364624,13.2671251296997,11.6069660186768,11.6067380905151,11.6065092086792,11.6062803268433,11.6060514450073,11.6058225631714,11.6055936813354,11.6053647994995,11.6051359176636,11.6049070358276,11.6046781539917,11.6044492721558,11.6042213439941,11.6039924621582,11.6037635803223,11.6035346984863,11.6033058166504,11.6030769348145,11.6028490066528,11.6026201248169,11.602391242981,11.602162361145,11.6019344329834,11.6017055511475,11.6014766693115,11.6012477874756,11.601019859314,11.600790977478,11.6005620956421,11.6003332138062,11.6001052856445,11.5998764038086,11.5996475219727,11.599419593811,11.5991907119751,11.5989627838135,11.5987339019775,11.5985050201416,11.59827709198,11.598048210144,11.5978193283081,11.5975914001465,11.5973625183105,11.5971345901489,11.596905708313,11.5966777801514,11.5964488983154,11.5962209701538,11.5959920883179,11.5957641601562,11.5955352783203,11.5953073501587,11.5950784683228,11.5948505401611,11.5946216583252,11.5943937301636,11.5941648483276,11.593936920166,11.5937080383301,11.5934801101685,11.5932521820068,11.5930233001709,11.5927953720093,11.5925664901733,11.5923385620117,11.5921106338501,11.5918817520142,11.5916538238525,11.5914258956909,11.591197013855,11.5909690856934,11.5907411575317,11.5905122756958,11.5902843475342,11.5900564193726,11.5898284912109,11.5896005630493,11.5915727615356,11.599045753479,11.6065282821655,11.6140203475952,11.6215229034424,11.6290349960327,11.6479053497314,11.7067041397095,11.7661027908325,11.8261079788208,11.8867273330688,11.9479713439941,12.0098505020142,12.0723733901978,12.1355504989624,12.1993932723999,12.2639102935791,12.3291139602661,12.3950138092041,12.4616222381592,12.5289506912231,12.5653810501099,12.5748682022095,12.5843696594238,12.5938854217529,12.6034154891968,12.6129598617554,12.6225185394287,12.6320924758911,12.6416797637939,12.6512823104858,12.6609001159668,12.6705312728882,12.6801776885986,12.6898393630981,12.6995143890381,12.7092056274414,12.7189111709595,12.7286310195923,12.7383661270142,12.7481164932251,12.7578811645508,12.7676610946655,12.7774562835693,12.7872657775879,12.7970914840698,12.8069314956665,12.8167867660522,12.8266572952271,12.8365430831909,12.8464441299438,12.8563604354858,12.8662919998169,12.876238822937,12.8862009048462,12.8961782455444,12.902702331543,12.9072036743164,12.9117078781128,12.9162149429321,12.9207248687744,12.925238609314,12.9297552108765,12.9342756271362,12.9405479431152,12.9482660293579,12.9559936523438,12.9637308120728,12.9714765548706,12.9792318344116,12.9869956970215,12.9947700500488,13.002552986145,13.0103454589844,13.0181474685669,13.0259580612183,13.0337791442871,13.0416088104248,13.0494480133057,13.0572967529297,13.0651550292969,13.0730228424072,13.0808992385864,13.0887861251831,13.0966825485229,13.1045875549316,13.1125030517578,13.1204280853271,13.1283626556396,13.1363067626953,13.1442604064941,13.1522235870361,13.1601963043213,13.1681785583496,13.1761713027954,13.1841726303101,13.1921844482422,13.2002058029175,13.2082366943359,13.2162780761719,13.224328994751,13.2323894500732,13.2404594421387,13.2485399246216,13.2566299438477,13.2647304534912,13.2728404998779,13.2809600830078,13.2890901565552,13.2972297668457,13.3053789138794,13.3135385513306,13.3217086791992,13.329888343811,13.3380784988403,13.3462781906128,13.3544883728027,13.3627080917358,13.3709383010864,13.3791790008545,13.3874292373657,13.3956899642944,13.4039602279663,13.41224193573,13.4205331802368,13.4288349151611,13.4371461868286,13.4454689025879,13.4538011550903,13.4621438980103,13.4704971313477,13.4788608551025,13.4872350692749,13.4956188201904,13.5040140151978,13.5124187469482,13.5208349227905,13.529260635376,13.5376977920532,13.5461444854736,13.5546026229858,13.5630712509155,13.5715503692627,13.5800399780273,13.5885400772095,13.5970506668091,13.6055717468262,13.6141042709351,13.6226472854614,13.6312007904053,13.6397647857666,13.6483402252197,13.6569261550903,13.6655225753784,13.6741304397583,13.6827487945557,13.6913776397705,13.7000179290771,13.7086696624756,13.7173309326172,13.7260046005249,13.7346878051758,13.7433834075928,13.7520895004272,13.7608060836792,13.7695341110229,13.7782735824585,13.7870235443115,13.7957849502563,13.8045568466187,13.8257579803467,13.8575611114502,13.8895111083984,13.9216089248657,13.9538555145264,13.9862518310547,14.018798828125,14.0514974594116,14.0843486785889,14.1173543930054,14.1505155563354,14.1838321685791,14.217306137085,14.2509384155273,14.2847309112549,14.3186836242676,14.3527975082397,14.38707447052,14.421516418457,14.4561233520508,14.4908962249756,14.5258369445801,14.5609474182129,14.5962266921997,14.6316785812378,14.6673021316528,14.7031002044678,14.7390727996826,14.7752227783203,14.8115501403809,14.8681316375732,14.9320678710938,14.9965562820435,15.0616054534912,15.1272201538086,15.1934089660645,15.2601804733276,15.327540397644,15.3954982757568,15.4640617370605,15.5332384109497,15.6030359268188,15.6734647750854,15.7445316314697,17.7745418548584,17.9536228179932,18.1122970581055,18.2737998962402,0,0,0,0,0,0,0,0,0,0,0,0,0,0,0,0,0,0,0,0,0,0,0
13.064977645874,13.0647201538086,13.0644617080688,13.0642042160034,13.063946723938,13.0636882781982,13.0634307861328,13.0631732940674,13.062915802002,13.0626573562622,13.0623998641968,13.0621423721313,13.0618848800659,13.0616273880005,13.0613689422607,13.0611114501953,13.044976234436,13.0410308837891,13.0402345657349,13.0442037582397,13.0439472198486,9.08141326904297,9.07285022735596,9.06637001037598,9.07154846191406,9.07673358917236,9.08192253112793,9.09505367279053,9.11179256439209,9.13460063934326,13.2712507247925,13.2709894180298,13.2707281112671,13.2704658508301,13.2702045440674,13.2699422836304,13.2696809768677,13.269419670105,13.269157409668,13.2688961029053,13.2686347961426,13.2683725357056,13.2681112289429,13.2678499221802,13.2675876617432,13.2673263549805,13.2670650482178,11.6069135665894,11.6066846847534,11.6064558029175,11.6062269210815,11.6059980392456,11.6057691574097,11.605541229248,11.6053123474121,11.6050834655762,11.6048545837402,11.6046257019043,11.6043968200684,11.6041679382324,11.6039390563965,11.6037111282349,11.6034822463989,11.603253364563,11.6030244827271,11.6027956008911,11.6025676727295,11.6023387908936,11.6021099090576,11.6018810272217,11.6016521453857,11.6014242172241,11.6011953353882,11.6009664535522,11.6007385253906,11.6005096435547,11.6002807617188,11.6000518798828,11.5998239517212,11.5995950698853,11.5993661880493,11.5991382598877,11.5989093780518,11.5986814498901,11.5984525680542,11.5982236862183,11.5979957580566,11.5977668762207,11.5975389480591,11.5973100662231,11.5970811843872,11.5968532562256,11.5966243743896,11.596396446228,11.5961675643921,11.5959396362305,11.5957107543945,11.5954828262329,11.595253944397,11.5950260162354,11.5947971343994,11.5945692062378,11.5943403244019,11.5941123962402,11.5938844680786,11.5936555862427,11.5934276580811,11.5931987762451,11.5929708480835,11.5927429199219,11.5925140380859,11.5922861099243,11.5920572280884,11.5918292999268,11.5916013717651,11.5913724899292,11.5911445617676,11.590916633606,11.5906887054443,11.5904598236084,11.5902318954468,11.5900039672852,11.5897760391235,11.5895481109619,11.589319229126,11.5890913009644,11.5961561203003,11.6036357879639,11.6111240386963,11.6186227798462,11.6479434967041,11.7067441940308,11.7661437988281,11.8261489868164,11.8867683410645,11.9480133056641,12.0098924636841,12.072416305542,12.1355934143066,12.1994361877441,12.2639541625977,12.3291578292847,12.395058631897,12.4616680145264,12.5190916061401,12.5285081863403,12.5379400253296,12.5473852157593,12.5568447113037,12.5663194656372,12.5758075714111,12.5853099822998,12.5948276519775,12.6043586730957,12.6139049530029,12.6234645843506,12.6330394744873,12.6426296234131,12.6522331237793,12.6618518829346,12.6714849472046,12.6811332702637,12.6907958984375,12.7004728317261,12.7101650238037,12.7198715209961,12.7295932769775,12.739330291748,12.7490816116333,12.7588481903076,12.7686290740967,12.7784261703491,12.7882375717163,12.7980642318726,12.8079051971436,12.8177623748779,12.8276348114014,12.8375215530396,12.8474245071411,12.8573417663574,12.8659210205078,12.8703966140747,12.8752269744873,12.8828678131104,12.8905172348022,12.8981761932373,12.9058437347412,12.9135208129883,12.9212064743042,12.9289016723633,12.9366064071655,12.9443197250366,12.9520425796509,12.959774017334,12.9675159454346,12.975266456604,12.9830255508423,12.990795135498,12.9985733032227,13.0063610076904,13.0141572952271,13.0219640731812,13.0297794342041,13.0376052856445,13.0454387664795,13.0532827377319,13.0611362457275,13.0689992904663,13.0768718719482,13.084753036499,13.0926446914673,13.1005458831787,13.108455657959,13.1163759231567,13.1243047714233,13.1322441101074,13.1401929855347,13.1481513977051,13.1561193466187,13.1640968322754,13.1720838546753,13.1800813674927,13.1880874633789,13.1961040496826,13.2041301727295,13.2121658325195,13.2202119827271,13.2282676696777,13.2363328933716,13.2444086074829,13.2524929046631,13.2605876922607,13.2686929702759,13.2768077850342,13.2849321365356,13.2930669784546,13.3012113571167,13.3093662261963,13.317530632019,13.3257055282593,13.3338899612427,13.3420848846436,13.3502893447876,13.3585042953491,13.3667297363281,13.3749647140503,13.3832101821899,13.3914651870728,13.3997316360474,13.4080066680908,13.4162931442261,13.4245891571045,13.4328966140747,13.4412126541138,13.4495401382446,13.457878112793,13.4662256240845,13.4745836257935,13.4829530715942,13.4913320541382,13.4997215270996,13.5081205368042,13.5165309906006,13.5249519348145,13.5333833694458,13.5418252944946,13.5502777099609,13.5587406158447,13.567214012146,13.5756978988647,13.5841932296753,13.592698097229,13.6012144088745,13.6097412109375,13.618278503418,13.6268262863159,13.6353855133057,13.6439552307129,13.6525354385376,13.6611270904541,13.6697282791138,13.6783418655396,13.6869649887085,13.6955995559692,13.7042455673218,13.7129020690918,13.7215690612793,13.7302474975586,13.7389364242554,13.7476367950439,13.7563486099243,13.7650709152222,13.7738046646118,13.7825489044189,13.7921028137207,13.823751449585,13.8555459976196,13.8874864578247,13.9195747375488,13.9518117904663,13.9841985702515,14.0167360305786,14.0494251251221,14.0822668075562,14.1152629852295,14.1484136581421,14.1817207336426,14.2151851654053,14.2488069534302,14.2825889587402,14.3165311813354,14.3506355285645,14.3849029541016,14.4193334579468,14.453929901123,14.4886922836304,14.5236234664917,14.5587224960327,14.5939912796021,14.6294317245483,14.6650447845459,14.700831413269,14.7367935180664,14.7729320526123,14.8092479705811,14.8457431793213,14.8968124389648,14.9609966278076,15.0257358551025,15.0910387039185,15.1569108963013,15.2233600616455,15.2903957366943,15.3580236434937,15.4262523651123,15.4950904846191,15.5645456314087,15.6346263885498,15.705340385437,17.8824138641357,17.9732971191406,18.1371231079102,0,0,0,0,0,0,0,0,0,0,0,0,0,0,0,0,0,0,0,0,0,0,0
13.096830368042,13.0965719223022,13.0963134765625,13.0960550308228,13.095796585083,13.0955381393433,13.0952796936035,13.0950212478638,13.094762802124,13.0945043563843,13.0942459106445,13.0939874649048,13.0937299728394,13.0934715270996,13.0932130813599,13.0929546356201,13.0449161529541,13.0446586608887,13.0444021224976,13.0441446304321,13.0438871383667,9.08135509490967,9.07279205322266,9.06633949279785,9.07151889801025,9.07670402526855,9.08189296722412,9.09504699707031,9.11178588867188,9.13487434387207,13.2711906433105,13.2709293365479,13.2706670761108,13.2704057693481,13.2701435089111,13.2698822021484,13.2696208953857,13.2693586349487,13.269097328186,13.2688360214233,13.2685737609863,13.2683124542236,13.2680511474609,13.2677888870239,13.2675275802612,13.2672662734985,13.2670049667358,11.606861114502,11.606632232666,11.6064033508301,11.6061744689941,11.6059455871582,11.6057167053223,11.6054878234863,11.6052589416504,11.6050300598145,11.6048011779785,11.6045732498169,11.604344367981,11.604115486145,11.6038866043091,11.6036577224731,11.6034288406372,11.6032009124756,11.6029720306396,11.6027431488037,11.6025142669678,11.6022853851318,11.6020574569702,11.6018285751343,11.6015996932983,11.6013708114624,11.6011428833008,11.6009140014648,11.6006851196289,11.6004571914673,11.6002283096313,11.5999994277954,11.5997714996338,11.5995426177979,11.5993137359619,11.5990858078003,11.5988569259644,11.5986280441284,11.5984001159668,11.5981712341309,11.5979423522949,11.5977144241333,11.5974855422974,11.5972576141357,11.5970287322998,11.5968008041382,11.5965719223022,11.5963439941406,11.5961151123047,11.5958871841431,11.5956583023071,11.5954303741455,11.5952014923096,11.5949735641479,11.594744682312,11.5945167541504,11.5942878723145,11.5940599441528,11.5938310623169,11.5936031341553,11.5933752059937,11.5931463241577,11.5929183959961,11.5926895141602,11.5924615859985,11.5922336578369,11.592004776001,11.5917768478394,11.5915489196777,11.5913200378418,11.5910921096802,11.5908641815186,11.5906352996826,11.590407371521,11.5901794433594,11.5899515151978,11.5897226333618,11.5894947052002,11.5892667770386,11.589038848877,11.5888109207153,11.5932693481445,11.6007442474365,11.608229637146,11.6479816436768,11.7067842483521,11.7661838531494,11.826189994812,11.8868103027344,11.948055267334,12.009934425354,12.0724582672119,12.1356372833252,12.1994800567627,12.2639980316162,12.3292026519775,12.3951034545898,12.4617137908936,12.4824895858765,12.4918518066406,12.5012273788452,12.5106182098389,12.5200223922729,12.5294408798218,12.5388736724854,12.5483207702637,12.5577812194824,12.5672569274902,12.5767469406128,12.5862512588501,12.5957689285278,12.6053018569946,12.6148500442505,12.6244115829468,12.6339874267578,12.6435785293579,12.6531839370728,12.6628036499023,12.672438621521,12.6820878982544,12.6917524337769,12.7014303207397,12.711124420166,12.720832824707,12.7305555343628,12.7402944564819,12.7500467300415,12.7598152160645,12.7695980072021,12.7793960571289,12.7892084121704,12.7990369796753,12.8088798522949,12.8187379837036,12.8286113739014,12.8385000228882,12.8484048843384,12.8583240509033,12.8682584762573,12.8782081604004,12.8866052627563,12.8942594528198,12.9019231796265,12.9095945358276,12.9172763824463,12.9249668121338,12.9326667785645,12.940375328064,12.9480934143066,12.9558200836182,12.9635572433472,12.971302986145,12.979058265686,12.9868221282959,12.9945955276489,13.0023784637451,13.0101709365845,13.0179719924927,13.0257835388184,13.0336036682129,13.0414333343506,13.0492715835571,13.0571203231812,13.0649785995483,13.0728464126587,13.0807228088379,13.0886096954346,13.0965051651001,13.1044111251831,13.112325668335,13.1202507019043,13.1281843185425,13.1361284255981,13.1440811157227,13.1520442962646,13.1600170135498,13.1679992675781,13.1759910583496,13.1839933395386,13.1920051574707,13.200026512146,13.2080564498901,13.2160978317261,13.2241477966309,13.2322082519531,13.2402782440186,13.2483587265015,13.2564487457275,13.2645483016968,13.2726583480835,13.2807779312134,13.2889070510864,13.297046661377,13.3051958084106,13.3133554458618,13.3215255737305,13.3297052383423,13.3378944396973,13.3460941314697,13.3543033599854,13.3625240325928,13.370753288269,13.3789939880371,13.3872442245483,13.3955039978027,13.4037752151489,13.4120559692383,13.4203472137451,13.4286489486694,13.4369602203369,13.4452819824219,13.4536142349243,13.4619569778442,13.4703102111816,13.4786729812622,13.4870471954346,13.4954309463501,13.5038251876831,13.5122308731079,13.5206460952759,13.5290718078613,13.5375080108643,13.545955657959,13.5544128417969,13.5628814697266,13.5713596343994,13.5798492431641,13.5883493423462,13.5968599319458,13.6053810119629,13.6139125823975,13.6224555969238,13.6310091018677,13.639573097229,13.6481475830078,13.6567335128784,13.6653299331665,13.6739368438721,13.6825551986694,13.6911840438843,13.6998243331909,13.708475112915,13.717137336731,13.7258100509644,13.7344932556152,13.7431879043579,13.7518939971924,13.7606105804443,13.7693386077881,13.7901067733765,13.8217468261719,13.8535308837891,13.8854627609253,13.9175415039062,13.9497690200806,13.9821462631226,14.0146741867065,14.0473537445068,14.0801858901978,14.1131725311279,14.1463136672974,14.1796102523804,14.2130641937256,14.2466764450073,14.2804489135742,14.314380645752,14.3484745025635,14.3827314376831,14.4171524047852,14.4517374038696,14.4864902496338,14.5214099884033,14.5564975738525,14.5917558670044,14.6271858215332,14.6627883911133,14.6985635757446,14.7345142364502,14.7706413269043,14.8069467544556,14.843430519104,14.8800935745239,14.9256048202515,14.9900369644165,15.0550289154053,15.1205863952637,15.1867179870605,15.2534294128418,15.3207302093506,15.3886280059814,15.4571294784546,15.5262441635132,15.5959796905518,15.6663436889648,15.7373456954956,18.0226974487305,0,0,0,0,0,0,0,0,0,0,0,0,0,0,0,0,0,0,0,0,0,0,0
13.0967702865601,13.0965118408203,13.0962533950806,13.0959949493408,13.0957365036011,13.0954780578613,13.0952196121216,13.0949611663818,13.0947036743164,13.0944452285767,13.0941867828369,13.0939283370972,13.0936698913574,13.0934114456177,13.0931529998779,13.0928955078125,13.0448570251465,13.0445995330811,13.0443420410156,13.0440855026245,13.0438280105591,9.08129596710205,9.07273292541504,9.06630897521973,9.07148838043213,9.07667350769043,9.081862449646,9.0950403213501,9.11177921295166,9.13514804840088,13.2711305618286,13.2708683013916,13.2706069946289,13.2703456878662,13.2700834274292,13.2698221206665,13.2695598602295,13.2692985534668,13.2690372467041,13.2687749862671,13.2685136795044,13.2682523727417,13.2679901123047,13.267728805542,13.2674674987793,13.2672061920166,13.2669439315796,11.6068077087402,11.6065788269043,11.6063499450684,11.6061220169067,11.6058931350708,11.6056642532349,11.6054353713989,11.605206489563,11.6049776077271,11.6047487258911,11.6045198440552,11.6042909622192,11.6040630340576,11.6038341522217,11.6036052703857,11.6033763885498,11.6031475067139,11.6029186248779,11.6026906967163,11.6024618148804,11.6022329330444,11.6020040512085,11.6017761230469,11.6015472412109,11.601318359375,11.6010894775391,11.6008615493774,11.6006326675415,11.6004037857056,11.6001758575439,11.599946975708,11.5997180938721,11.5994901657104,11.5992612838745,11.5990324020386,11.598804473877,11.598575592041,11.5983467102051,11.5981187820435,11.5978899002075,11.5976619720459,11.59743309021,11.597204208374,11.5969762802124,11.5967473983765,11.5965194702148,11.5962905883789,11.5960626602173,11.5958337783813,11.5956058502197,11.5953769683838,11.5951490402222,11.5949201583862,11.5946922302246,11.5944633483887,11.5942354202271,11.5940074920654,11.5937786102295,11.5935506820679,11.5933218002319,11.5930938720703,11.5928649902344,11.5926370620728,11.5924091339111,11.5921802520752,11.5919523239136,11.591724395752,11.591495513916,11.5912675857544,11.5910396575928,11.5908107757568,11.5905828475952,11.5903549194336,11.590126991272,11.589898109436,11.5896701812744,11.5894422531128,11.5892143249512,11.5889863967896,11.5887584686279,11.5885305404663,11.5903825759888,11.5978546142578,11.648021697998,11.7068243026733,11.766224861145,11.8262300491333,11.88685131073,11.9480972290039,12.0099773406982,12.0725011825562,12.1356801986694,12.1995229721069,12.2640419006348,12.3292465209961,12.3951482772827,12.4617586135864,12.4811477661133,12.4748392105103,12.4685363769531,12.4740648269653,12.4834146499634,12.4927778244019,12.5021562576294,12.511547088623,12.5209531784058,12.5303735733032,12.5398073196411,12.5492553710938,12.5587177276611,12.5681953430176,12.5776863098145,12.5871915817261,12.5967121124268,12.6062459945679,12.615795135498,12.6253576278687,12.6349353790283,12.6445283889771,12.6541347503662,12.6637563705444,12.6733922958374,12.6830434799194,12.6927089691162,12.7023887634277,12.7120838165283,12.721794128418,12.7315187454224,12.7412576675415,12.751012802124,12.7607822418213,12.7705659866333,12.7803659439087,12.7901802062988,12.800009727478,12.8098545074463,12.8197145462036,12.8295888900757,12.8394794464111,12.8493852615356,12.8593063354492,12.8692426681519,12.8791942596436,12.8891611099243,12.8991432189941,12.9091415405273,12.9191551208496,12.928729057312,12.9364337921143,12.9441471099854,12.9518690109253,12.9596014022827,12.967342376709,12.9750919342041,12.9828519821167,12.9906206130981,12.9983987808228,13.0061864852905,13.0139827728271,13.0217885971069,13.0296039581299,13.037428855896,13.0452632904053,13.0531072616577,13.0609607696533,13.0688228607178,13.0766954421997,13.0845766067505,13.0924673080444,13.1003684997559,13.1082782745361,13.1161975860596,13.1241273880005,13.1320657730103,13.1400146484375,13.1479721069336,13.1559400558472,13.1639175415039,13.1719045639038,13.1799011230469,13.1879081726074,13.1959238052368,13.2039499282837,13.2119855880737,13.2200317382812,13.2280864715576,13.2361516952515,13.2442264556885,13.252311706543,13.2604064941406,13.2685108184814,13.2766256332397,13.2847499847412,13.2928848266602,13.3010292053223,13.3091831207275,13.3173475265503,13.3255224227905,13.3337068557739,13.3419008255005,13.3501052856445,13.3583202362061,13.3665447235107,13.3747797012329,13.3830251693726,13.3912801742554,13.3995456695557,13.4078216552734,13.4161071777344,13.4244031906128,13.4327096939087,13.4410266876221,13.4493532180786,13.457691192627,13.4660387039185,13.4743967056274,13.4827651977539,13.4911441802979,13.499532699585,13.5079326629639,13.5163421630859,13.5247631072998,13.5331945419312,13.5416355133057,13.550087928772,13.5585508346558,13.567024230957,13.5755081176758,13.584002494812,13.5925073623657,13.6010236740112,13.6095495223999,13.6180868148804,13.6266345977783,13.6351938247681,13.643762588501,13.6523427963257,13.6609344482422,13.6695356369019,13.6781482696533,13.6867713928223,13.695405960083,13.7040510177612,13.7127075195312,13.7213745117188,13.730052947998,13.7387418746948,13.7474422454834,13.7566251754761,13.7881116867065,13.8197412490845,13.8515176773071,13.8834390640259,13.915509223938,13.9477272033691,13.980094909668,14.0126132965088,14.0452833175659,14.0781059265137,14.1110820770264,14.1442127227783,14.1775007247925,14.2109441757202,14.2445468902588,14.2783088684082,14.3122301101685,14.3463144302368,14.380560874939,14.4149703979492,14.4495458602905,14.4842872619629,14.5191965103149,14.554274559021,14.5895223617554,14.6249408721924,14.6605319976807,14.6962966918945,14.7322359085083,14.7683525085449,14.8046455383301,14.8411178588867,14.8777704238892,14.9146041870117,14.9545078277588,15.0191917419434,15.084436416626,15.1502513885498,15.2166423797607,15.2836179733276,15.3511867523193,15.4193544387817,15.488130569458,15.5575227737427,15.6275405883789,15.6981906890869,0,0,0,0,0,0,0,0,0,0,0,0,0,0,0,0,0,0,0,0,0,0,0
13.0967111587524,13.0964527130127,13.0961942672729,13.0959358215332,13.0956773757935,13.0954189300537,13.095160484314,13.0949020385742,13.0946435928345,13.0943851470947,13.094126701355,13.0938682556152,13.0936107635498,13.0933523178101,13.0930938720703,13.0928354263306,13.0447978973389,13.0445404052734,13.044282913208,13.0440254211426,13.0437688827515,9.08123683929443,9.07267475128174,9.06627941131592,9.071457862854,9.0766429901123,9.08183193206787,9.09503364562988,9.11177253723145,9.13542175292969,13.2710695266724,13.2708082199097,13.270546913147,13.27028465271,13.2700233459473,13.2697610855103,13.2694997787476,13.2692384719849,13.2689762115479,13.2687149047852,13.2684535980225,13.2681913375854,13.2679300308228,13.2676687240601,13.267406463623,13.2671451568604,13.2668838500977,11.6067552566528,11.6065263748169,11.606297492981,11.606068611145,11.6058397293091,11.6056108474731,11.6053819656372,11.6051540374756,11.6049251556396,11.6046962738037,11.6044673919678,11.6042385101318,11.6040096282959,11.60378074646,11.6035528182983,11.6033239364624,11.6030950546265,11.6028661727905,11.6026372909546,11.602409362793,11.602180480957,11.6019515991211,11.6017227172852,11.6014938354492,11.6012659072876,11.6010370254517,11.6008081436157,11.6005802154541,11.6003513336182,11.6001224517822,11.5998945236206,11.5996656417847,11.5994367599487,11.5992088317871,11.5989799499512,11.5987510681152,11.5985231399536,11.5982942581177,11.5980653762817,11.5978374481201,11.5976085662842,11.5973806381226,11.5971517562866,11.596923828125,11.5966949462891,11.5964670181274,11.5962381362915,11.5960092544556,11.5957813262939,11.595552444458,11.5953245162964,11.5950965881348,11.5948677062988,11.5946397781372,11.5944108963013,11.5941829681396,11.5939540863037,11.5937261581421,11.5934972763062,11.5932693481445,11.5930414199829,11.592812538147,11.5925846099854,11.5923557281494,11.5921277999878,11.5918998718262,11.5916709899902,11.5914430618286,11.591215133667,11.5909862518311,11.5907583236694,11.5905303955078,11.5903024673462,11.5900735855103,11.5898456573486,11.589617729187,11.5893898010254,11.5891618728638,11.5889339447021,11.5887060165405,11.5884780883789,11.588249206543,11.5898456573486,11.648060798645,11.7068643569946,11.7662649154663,11.8262710571289,11.8868923187256,11.9481382369995,12.0100193023682,12.0725440979004,12.1357231140137,12.1995668411255,12.2640857696533,12.329291343689,12.3951940536499,12.4618043899536,12.4985580444336,12.4922323226929,12.485912322998,12.4795989990234,12.473292350769,12.4669914245605,12.4656534194946,12.4749898910522,12.4843406677246,12.493706703186,12.5030851364136,12.5124788284302,12.5218858718872,12.531307220459,12.5407428741455,12.5501928329468,12.5596570968628,12.5691356658936,12.5786285400391,12.5881357192993,12.5976572036743,12.6071929931641,12.6167430877686,12.6263074874878,12.6358871459961,12.6454811096191,12.6550893783569,12.6647129058838,12.6743507385254,12.6840028762817,12.6936702728271,12.7033519744873,12.7130479812622,12.7227602005005,12.7324857711792,12.7422275543213,12.7519836425781,12.761754989624,12.7715406417847,12.7813415527344,12.7911577224731,12.800989151001,12.8108358383179,12.8206968307495,12.8305730819702,12.8404655456543,12.8503723144531,12.8602952957153,12.8702325820923,12.8801860809326,12.890154838562,12.9001388549805,12.910138130188,12.9201536178589,12.9301834106445,12.9402303695679,12.950291633606,12.9603691101074,12.9704627990723,12.9788837432861,12.986647605896,12.994421005249,13.0022039413452,13.0099954605103,13.0177974700928,13.0256080627441,13.0334281921387,13.0412569046021,13.0490961074829,13.0569448471069,13.0648021697998,13.0726690292358,13.0805463790894,13.0884323120117,13.0963277816772,13.1042337417603,13.1121482849121,13.1200723648071,13.1280059814453,13.135950088501,13.1439027786255,13.1518659591675,13.1598386764526,13.167820930481,13.1758127212524,13.1838140487671,13.1918249130249,13.1998462677002,13.2078771591187,13.2159175872803,13.2239675521851,13.2320280075073,13.2400979995728,13.2481775283813,13.2562675476074,13.2643671035767,13.2724761962891,13.2805957794189,13.288724899292,13.2968645095825,13.3050136566162,13.3131732940674,13.3213424682617,13.3295211791992,13.3377103805542,13.3459100723267,13.3541193008423,13.3623390197754,13.370569229126,13.3788089752197,13.387059211731,13.3953189849854,13.4035892486572,13.4118700027466,13.4201612472534,13.4284620285034,13.4367733001709,13.4450950622559,13.4534273147583,13.4617700576782,13.4701223373413,13.4784851074219,13.4868593215942,13.4952430725098,13.5036373138428,13.5120420455933,13.5204572677612,13.5288829803467,13.5373191833496,13.54576587677,13.5542230606079,13.5626907348633,13.5711698532104,13.5796585083008,13.5881586074829,13.5966682434082,13.6051893234253,13.6137218475342,13.6222639083862,13.6308164596558,13.6393804550171,13.6479549407959,13.6565408706665,13.6651372909546,13.6737442016602,13.6823625564575,13.690990447998,13.6996307373047,13.7082815170288,13.7169427871704,13.7256155014038,13.7342987060547,13.7546396255493,13.7861166000366,13.8177375793457,13.8495035171509,13.8814163208008,13.9134769439697,13.9456853866577,13.9780435562134,14.010552406311,14.043212890625,14.0760259628296,14.1089925765991,14.1421136856079,14.1753911972046,14.2088251113892,14.2424173355103,14.2761688232422,14.3100805282593,14.3441543579102,14.3783903121948,14.4127902984619,14.4473552703857,14.4820861816406,14.5169839859009,14.5520515441895,14.587287902832,14.6226959228516,14.6582765579224,14.6940298080444,14.7299585342407,14.7660636901855,14.8023452758789,14.8388061523438,14.8754472732544,14.9122695922852,14.9492750167847,14.9864645004272,15.0484590530396,15.113959312439,15.1800317764282,15.2466850280762,15.3139266967773,15.381763458252,15.4502038955688,15.5192565917969,15.5889282226562,15.6592292785645,0,0,0,0,0,0,0,0,0,0,0,0,0,0,0,0,0,0,0,0,0,0
13.0966510772705,13.0963926315308,13.096134185791,13.0958757400513,13.0956172943115,13.0953588485718,13.095100402832,13.0948419570923,13.0945844650269,13.0943260192871,13.0940675735474,13.0938091278076,13.0935506820679,13.0932922363281,13.0930337905884,13.0927762985229,13.0447378158569,13.0444812774658,13.0442237854004,13.043966293335,13.0437097549438,9.08117771148682,9.07261562347412,9.06624889373779,9.0714282989502,9.0766134262085,9.08180236816406,9.09502696990967,9.11176586151123,9.1356954574585,13.2710094451904,13.2707481384277,13.2704858779907,13.270224571228,13.269962310791,13.2697010040283,13.2694396972656,13.2691774368286,13.2689161300659,13.2686548233032,13.2683925628662,13.2681312561035,13.2678699493408,13.2676076889038,13.2673463821411,13.2670850753784,13.2668237686157,11.6067028045654,11.6064739227295,11.6062450408936,11.6060161590576,11.6057872772217,11.6055583953857,11.6053295135498,11.6051006317139,11.6048717498779,11.604642868042,11.6044149398804,11.6041860580444,11.6039571762085,11.6037282943726,11.6034994125366,11.6032705307007,11.6030426025391,11.6028137207031,11.6025848388672,11.6023559570312,11.6021270751953,11.6018991470337,11.6016702651978,11.6014413833618,11.6012125015259,11.6009845733643,11.6007556915283,11.6005268096924,11.6002988815308,11.6000699996948,11.5998411178589,11.5996131896973,11.5993843078613,11.5991554260254,11.5989274978638,11.5986986160278,11.5984697341919,11.5982418060303,11.5980129241943,11.5977849960327,11.5975561141968,11.5973272323608,11.5970993041992,11.5968704223633,11.5966424942017,11.5964136123657,11.5961856842041,11.5959568023682,11.5957288742065,11.5954999923706,11.595272064209,11.595043182373,11.5948152542114,11.5945863723755,11.5943584442139,11.5941295623779,11.5939016342163,11.5936737060547,11.5934448242188,11.5932168960571,11.5929880142212,11.5927600860596,11.5925321578979,11.592303276062,11.5920753479004,11.5918474197388,11.5916185379028,11.5913906097412,11.5911626815796,11.5909337997437,11.590705871582,11.5904779434204,11.5902490615845,11.5900211334229,11.5897932052612,11.5895652770996,11.589337348938,11.5891094207764,11.5888805389404,11.5886526107788,11.5884246826172,11.5881967544556,11.5898885726929,11.6481008529663,11.7069044113159,11.7663059234619,11.8263120651245,11.8869333267212,11.9481801986694,12.0100612640381,12.0725860595703,12.1357660293579,12.199610710144,12.2641296386719,12.3293361663818,12.3952388763428,12.4618492126465,12.5160179138184,12.5096740722656,12.5033369064331,12.4970054626465,12.4906806945801,12.4201078414917,12.4293766021729,12.4386587142944,12.4479551315308,12.4572649002075,12.466588973999,12.475926399231,12.485279083252,12.4946451187134,12.5040245056152,12.5134191513062,12.5228271484375,12.5322504043579,12.5416870117188,12.5511379241943,12.5606021881104,12.5700817108154,12.5795755386353,12.5890836715698,12.5986061096191,12.6081438064575,12.6176948547363,12.6272611618042,12.6368427276611,12.6464376449585,12.6560478210449,12.6656723022461,12.675311088562,12.684965133667,12.6946334838867,12.7043170928955,12.714015007019,12.7237281799316,12.733455657959,12.7431983947754,12.7529563903809,12.7627286911011,12.7725162506104,12.7823190689087,12.7921361923218,12.8019695281982,12.8118171691895,12.8216800689697,12.8315582275391,12.8414516448975,12.8513603210449,12.8612842559814,12.871223449707,12.8811779022217,12.8911485671997,12.9011344909668,12.9111347198486,12.9211521148682,12.9311838150024,12.9412317276001,12.9512948989868,12.9613742828369,12.9714689254761,12.9815788269043,12.9917049407959,13.0018472671509,13.0120048522949,13.021614074707,13.02942943573,13.0372533798218,13.0450878143311,13.0529308319092,13.0607843399048,13.0686464309692,13.0765180587769,13.084400177002,13.0922908782959,13.100191116333,13.1081008911133,13.1160202026367,13.1239490509033,13.1318874359131,13.1398363113403,13.1477937698364,13.15576171875,13.1637392044067,13.1717252731323,13.1797218322754,13.1877288818359,13.1957445144653,13.2037706375122,13.2118053436279,13.2198514938354,13.2279062271118,13.2359714508057,13.2440462112427,13.2521305084229,13.2602252960205,13.2683296203613,13.2764434814453,13.2845678329468,13.2927017211914,13.3008460998535,13.3090000152588,13.3171644210815,13.3253383636475,13.3335227966309,13.3417177200317,13.3499212265015,13.358136177063,13.3663606643677,13.3745956420898,13.3828401565552,13.391095161438,13.3993606567383,13.4076356887817,13.4159212112427,13.4242172241211,13.432523727417,13.4408397674561,13.4491662979126,13.4575033187866,13.4658508300781,13.4742088317871,13.4825773239136,13.4909553527832,13.4993448257446,13.5077438354492,13.5161542892456,13.5245742797852,13.5330047607422,13.541446685791,13.549898147583,13.5583610534668,13.5668344497681,13.5753173828125,13.5838117599487,13.5923166275024,13.6008319854736,13.6093587875366,13.6178951263428,13.6264429092407,13.6350011825562,13.6435708999634,13.6521501541138,13.660740852356,13.6693429946899,13.6779556274414,13.6865787506104,13.6952123641968,13.703857421875,13.712513923645,13.7213296890259,13.7526540756226,13.7841215133667,13.8157339096069,13.8474912643433,13.87939453125,13.9114456176758,13.9436445236206,13.9759931564331,14.0084924697876,14.0411434173584,14.0739469528198,14.1069030761719,14.1400146484375,14.173282623291,14.2067070007324,14.240288734436,14.2740306854248,14.3079319000244,14.3419952392578,14.376220703125,14.4106101989746,14.445164680481,14.4798851013184,14.5147733688354,14.5498294830322,14.5850553512573,14.6204519271851,14.6560211181641,14.6917638778687,14.7276821136475,14.7637748718262,14.8000459671021,14.8364963531494,14.8731250762939,14.9099359512329,14.9469299316406,14.9841070175171,15.0214700698853,15.0778408050537,15.1435976028442,15.2099304199219,15.2768468856812,15.3443555831909,15.4124622344971,15.4811773300171,15.5505075454712,15.6204614639282,15.6910467147827,0,0,0,0,0,0,0,0,0,0,0,0,0,0,0,0,0,0,0,0
13.0965909957886,13.0963325500488,13.0960750579834,13.0958166122437,13.0955581665039,13.0952997207642,13.0950412750244,13.0947828292847,13.0945243835449,13.0942659378052,13.0940074920654,13.0937490463257,13.0934915542603,13.0932331085205,13.0929746627808,13.092716217041,13.0446786880493,13.0444211959839,13.0441637039185,13.0439071655273,13.0436496734619,9.08111953735352,9.0725564956665,9.06621837615967,9.07139778137207,9.07658290863037,9.08177185058594,9.09502124786377,9.11176013946533,9.1359691619873,13.2709493637085,13.2706871032715,13.2704257965088,13.2701644897461,13.2699022293091,13.2696409225464,13.2693786621094,13.2691173553467,13.268856048584,13.268593788147,13.2683324813843,13.2680711746216,13.2678089141846,13.2675476074219,13.2672863006592,13.2670249938965,13.2667627334595,11.6066493988037,11.6064205169678,11.6061916351318,11.6059627532959,11.60573387146,11.6055059432983,11.6052770614624,11.6050481796265,11.6048192977905,11.6045904159546,11.6043615341187,11.6041326522827,11.6039037704468,11.6036758422852,11.6034469604492,11.6032180786133,11.6029891967773,11.6027603149414,11.6025323867798,11.6023035049438,11.6020746231079,11.601845741272,11.6016178131104,11.6013889312744,11.6011600494385,11.6009311676025,11.6007032394409,11.600474357605,11.600245475769,11.6000175476074,11.5997886657715,11.5995597839355,11.5993318557739,11.599102973938,11.5988740921021,11.5986461639404,11.5984172821045,11.5981884002686,11.5979604721069,11.597731590271,11.5975036621094,11.5972747802734,11.5970468521118,11.5968179702759,11.5965890884399,11.5963611602783,11.5961322784424,11.5959043502808,11.5956754684448,11.5954475402832,11.5952186584473,11.5949907302856,11.594762802124,11.5945339202881,11.5943059921265,11.5940771102905,11.5938491821289,11.593620300293,11.5933923721313,11.5931644439697,11.5929355621338,11.5927076339722,11.5924787521362,11.5922508239746,11.592022895813,11.5917940139771,11.5915660858154,11.5913381576538,11.5911092758179,11.5908813476562,11.5906534194946,11.5904245376587,11.5901966094971,11.5899686813354,11.5897407531738,11.5895128250122,11.5892839431763,11.5890560150146,11.588828086853,11.5886001586914,11.5883722305298,11.5881443023682,11.5899305343628,11.6481418609619,11.7069444656372,11.7663459777832,11.8263530731201,11.8869752883911,11.9482221603394,12.010103225708,12.0726289749146,12.1358089447021,12.1996536254883,12.2641735076904,12.3293800354004,12.3952836990356,12.4618949890137,12.5292263031006,12.5271644592285,12.520809173584,12.5144605636597,12.5081186294556,12.3840942382812,12.3933095932007,12.4025382995605,12.4117803573608,12.4210357666016,12.4303064346313,12.4395895004272,12.4488878250122,12.4581985473633,12.4675245285034,12.476863861084,12.4862174987793,12.495584487915,12.5049657821655,12.5143613815308,12.5237712860107,12.5331954956055,12.5426330566406,12.5520858764648,12.5615520477295,12.5710334777832,12.5805282592773,12.5900382995605,12.5995616912842,12.6091003417969,12.6186532974243,12.6282205581665,12.6378021240234,12.6473979949951,12.6570091247559,12.6666345596313,12.6762752532959,12.6859302520752,12.6955995559692,12.7052841186523,12.7149829864502,12.7246971130371,12.7344255447388,12.7441701889038,12.7539291381836,12.7637033462524,12.773491859436,12.7832956314087,12.7931156158447,12.8029499053955,12.812798500061,12.8226633071899,12.8325433731079,12.8424377441406,12.8523483276367,12.8622741699219,12.8722143173218,12.8821706771851,12.8921422958374,12.9021291732788,12.9121322631836,12.9221506118774,12.9321842193604,12.9422330856323,12.9522981643677,12.9623785018921,12.9724750518799,12.9825868606567,12.992714881897,13.0028581619263,13.0130176544189,13.023193359375,13.0333843231201,13.0435914993286,13.0538148880005,13.0640544891357,13.0724925994873,13.0803689956665,13.0882558822632,13.0961513519287,13.1040563583374,13.1119709014893,13.1198949813843,13.1278285980225,13.1357717514038,13.1437244415283,13.1516876220703,13.1596593856812,13.1676416397095,13.175633430481,13.1836347579956,13.1916456222534,13.1996660232544,13.2076969146729,13.2157373428345,13.2237873077393,13.2318468093872,13.2399168014526,13.2479963302612,13.256085395813,13.2641849517822,13.2722940444946,13.2804136276245,13.2885427474976,13.2966814041138,13.3048305511475,13.3129901885986,13.3211584091187,13.3293380737305,13.3375272750854,13.3457260131836,13.3539352416992,13.3621549606323,13.3703842163086,13.3786239624023,13.3868741989136,13.395133972168,13.4034042358398,13.4116840362549,13.4199752807617,13.4282760620117,13.4365873336792,13.4449090957642,13.4532403945923,13.4615821838379,13.4699354171753,13.4782981872559,13.4866714477539,13.4950551986694,13.5034484863281,13.5118532180786,13.5202684402466,13.528694152832,13.537130355835,13.5455760955811,13.5540332794189,13.5625009536743,13.5709791183472,13.5794677734375,13.5879678726196,13.5964775085449,13.604998588562,13.6135301589966,13.6220722198486,13.6306247711182,13.6391887664795,13.6477632522583,13.6563482284546,13.6649446487427,13.6735506057739,13.6821689605713,13.6907968521118,13.6994371414185,13.7193546295166,13.7506694793701,13.7821283340454,13.8137311935425,13.8454790115356,13.8773727416992,13.9094142913818,13.9416046142578,13.9739437103271,14.0064334869385,14.0390748977661,14.0718679428101,14.1048154830933,14.1379165649414,14.1711740493774,14.2045888900757,14.2381610870361,14.2718925476074,14.3057842254639,14.3398361206055,14.3740520477295,14.4084310531616,14.4429750442505,14.4776849746704,14.5125617980957,14.547607421875,14.5828227996826,14.6182088851929,14.6537675857544,14.6894989013672,14.7254056930542,14.7614879608154,14.7977476119995,14.8341856002808,14.8708038330078,14.907603263855,14.9445858001709,14.9817514419556,15.0191020965576,15.056640625,15.1073369979858,15.1733522415161,15.2399473190308,15.30712890625,15.3749046325684,15.443284034729,15.5122747421265,15.5818843841553,15.6521215438843,0,0,0,0,0,0,0,0,0,0,0,0,0,0,0,0,0,0,0
