11.6033449172974,11.603123664856,11.6029033660889,11.6026830673218,11.6024627685547,11.6022415161133,11.6020212173462,11.6018009185791,11.6015796661377,11.6013593673706,11.6011390686035,11.6009187698364,11.6006984710693,11.6004772186279,11.6002569198608,11.6000366210938,11.5998163223267,11.5995960235596,11.5993747711182,11.5991544723511,11.598934173584,11.5987138748169,11.5984935760498,11.5982732772827,11.5980529785156,11.5978326797485,11.5976114273071,11.59739112854,11.5971708297729,11.5969505310059,11.5967302322388,11.5965099334717,11.5962896347046,11.5960693359375,11.5958490371704,11.5956287384033,11.5954084396362,11.5951881408691,11.5949678421021,11.594747543335,11.5945272445679,11.600733757019,11.6237764358521,11.6469116210938,11.6701383590698,11.6934576034546,11.7168712615967,11.7403783798218,11.7539072036743,11.7615804672241,11.7692642211914,11.7769575119019,11.7846612930298,11.7923755645752,11.8435964584351,11.9043388366699,11.9657077789307,12.0277118682861,12.0903606414795,12.1536617279053,12.2176294326782,12.2822732925415,12.3476057052612,12.4136362075806,12.4803771972656,12.5478391647339,12.6160345077515,12.6849756240845,12.7546739578247,12.8251428604126,12.8963947296143,12.9684543609619,13.0413227081299,13.1150150299072,13.1895456314087,13.2716474533081,13.2763442993164,13.2810440063477,13.2857475280762,13.2904529571533,13.2951631546021,13.2998762130737,13.3045930862427,13.3093128204346,13.3140363693237,13.3187627792358,13.3234920501709,13.3282260894775,13.3329629898071,13.3377027511597,13.3424453735352,13.3471927642822,13.3519420623779,13.3566961288452,13.3614530563354,13.3662137985229,13.3709764480591,13.3757438659668,13.3805141448975,13.3852882385254,13.3900661468506,13.3948469161987,13.3996305465698,13.4044179916382,13.4092092514038,13.4140033721924,13.4188013076782,13.4236030578613,13.4284076690674,13.4332151412964,13.438027381897,13.4428424835205,13.447660446167,13.4524822235107,13.4573078155518,13.4621362686157,13.466968536377,13.4718046188354,13.4766435623169,13.4814872741699,13.4863328933716,13.4911823272705,13.4960355758667,13.5008926391602,13.5057525634766,13.5106163024902,13.5154838562012,13.5203542709351,13.5252285003662,13.5301055908203,13.534987449646,13.5398721694946,13.5447607040405,13.5496520996094,13.5545473098755,13.5594463348389,13.5643491744995,13.5692548751831,13.574164390564,13.5790777206421,13.5839939117432,13.5889148712158,13.5938386917114,13.59876537323,13.6036968231201,13.6086311340332,13.6135692596436,13.6185111999512,13.6234560012817,13.6284046173096,13.6333570480347,13.638313293457,13.6432733535767,13.6482362747192,13.6532030105591,13.6581735610962,13.6631479263306,13.6681251525879,13.6731071472168,13.6780920028687,13.6830806732178,13.6880722045898,13.6930685043335,13.6980676651001,13.703070640564,13.7080783843994,13.7130880355835,13.7181024551392,13.7231206893921,13.728141784668,13.7331676483154,13.7381963729858,13.7432289123535,13.7482652664185,13.7533044815063,13.7583484649658,13.7633962631226,13.7684469223022,13.7735023498535,13.7813110351562,13.7900304794312,13.7987613677979,13.807502746582,13.816255569458,13.8250188827515,13.833794593811,13.8425798416138,13.8513774871826,13.8601856231689,13.8690052032471,13.877836227417,13.8866786956787,13.8955316543579,13.9043970108032,13.913272857666,13.9221601486206,13.931058883667,13.9399690628052,13.9488906860352,13.9578237533569,13.9667682647705,13.9757232666016,13.9846906661987,13.9936695098877,14.0026607513428,14.0116624832153,14.0206756591797,14.0297012329102,14.0425004959106,14.0752429962158,14.1081380844116,14.1411876678467,14.1743927001953,14.2077531814575,14.2412719726562,14.2749481201172,14.3087854385376,14.3610610961914,14.4205513000488,14.4805364608765,14.5410223007202,14.6020154953003,14.6635227203369,14.725549697876,14.7881050109863,14.8511924743652,14.9148216247559,14.9789981842041,15.0437288284302,15.1090221405029,15.1748847961426,15.2413234710693,15.3083467483521,15.3759622573853,15.4441776275635,15.5130004882812,15.5824403762817,15.6525039672852,15.7232007980347,15.7945384979248,15.866527557373,16.6526031494141,16.7677383422852,16.9438152313232,17.1236305236816,17.3074836730957,17.469690322876,17.619701385498,17.7723083496094,17.9363079071045,18.1285057067871,18.3480339050293,18.6626663208008,18.9326095581055,0,0,0,0,0,0,0,0,0,0,0,0,0,0,0,0,0,0,0,0,0,0,0,0,0,0,0,0,0,0,0,0,0,0,0,0,0,0,0,0,0,0,0,0,0,0,0,0,0,0,0,0,0,0,0,0,0,0,0,0,0,0,0,0,0,0,0,0,0,0,0,0,0,0,0,0,0,0,0,0,0,0,0,0,0,0,0,0,0,0,0,0,0,0,0,0,0,0,0,0,0,0,0,0,0,0,0,0,0,0,0,0
11.6032695770264,11.6030492782593,11.6028280258179,11.6026077270508,11.6023874282837,11.6021661758423,11.6019458770752,11.6017255783081,11.601505279541,11.6012840270996,11.6010637283325,11.6008434295654,11.6006231307983,11.6004028320312,11.6001815795898,11.5999612808228,11.5997409820557,11.5995206832886,11.5993003845215,11.5990800857544,11.598858833313,11.5986385345459,11.5984182357788,11.5981979370117,11.5979776382446,11.5977573394775,11.5975370407104,11.5973167419434,11.5970964431763,11.5968761444092,11.5966558456421,11.5964345932007,11.5962142944336,11.5959939956665,11.5957736968994,11.5955533981323,11.5953330993652,11.5951128005981,11.5948925018311,11.594672203064,11.5944528579712,11.6008701324463,11.6239128112793,11.647047996521,11.6702756881714,11.6935958862305,11.7170095443726,11.7355937957764,11.7432432174683,11.7509031295776,11.7585725784302,11.7662525177002,11.7739419937134,11.7834033966064,11.8435287475586,11.9042701721191,11.9656381607056,12.027642250061,12.0902881622314,12.1535882949829,12.2175550460815,12.2821979522705,12.3475294113159,12.4135589599609,12.4802989959717,12.5477609634399,12.6159553527832,12.6848955154419,12.7545928955078,12.8250608444214,12.8963117599487,12.9683685302734,13.0412368774414,13.1149282455444,13.1894569396973,13.2327013015747,13.2373704910278,13.2420434951782,13.2467184066772,13.2513971328735,13.2560796737671,13.2607650756836,13.265453338623,13.2701463699341,13.2748413085938,13.2795400619507,13.2842426300049,13.2889471054077,13.2936563491821,13.2983684539795,13.3030843734741,13.3078022003174,13.3125247955322,13.31725025177,13.3219795227051,13.3267116546631,13.331446647644,13.3361854553223,13.3409280776978,13.3456735610962,13.3504228591919,13.3551750183105,13.3599309921265,13.3646907806396,13.3694524765015,13.3742189407349,13.3789882659912,13.3837614059448,13.3885374069214,13.3933172225952,13.398099899292,13.402886390686,13.4076766967773,13.4124698638916,13.4172668457031,13.4220666885376,13.4268703460693,13.431676864624,13.436487197876,13.4413013458252,13.4461193084717,13.4509391784668,13.4557638168335,13.4605913162231,13.4654226303101,13.4702577590942,13.4750957489014,13.4799375534058,13.4847822189331,13.4896306991577,13.4944829940796,13.4993391036987,13.5041971206665,13.5090599060059,13.5139265060425,13.5187959671021,13.5236692428589,13.5285453796387,13.5334253311157,13.53830909729,13.5431966781616,13.5480871200562,13.5529813766479,13.557879447937,13.562780380249,13.5676851272583,13.5725936889648,13.5775060653687,13.5824213027954,13.5873403549194,13.5922632217407,13.597188949585,13.6021184921265,13.6070518493652,13.6119890213013,13.6169300079346,13.6218738555908,13.6268215179443,13.6317729949951,13.6367273330688,13.6416864395142,13.6466484069824,13.6516141891479,13.6565828323364,13.6615562438965,13.6665325164795,13.6715126037598,13.6764965057373,13.6814842224121,13.6864748001099,13.6914701461792,13.6964683532715,13.701470375061,13.7074213027954,13.7160472869873,13.724684715271,13.7333326339722,13.7419910430908,13.7506608963013,13.7593421936035,13.7680339813232,13.7767362594604,13.7854499816895,13.7941751480103,13.8029108047485,13.8116579055786,13.8204154968262,13.8291845321655,13.8379650115967,13.8467559814453,13.8555593490601,13.8643732070923,13.873197555542,13.8820343017578,13.8908815383911,13.8997402191162,13.9086103439331,13.9174919128418,13.9263849258423,13.9352884292603,13.9442043304443,13.9531307220459,13.9620695114136,13.971019744873,13.97998046875,13.9889535903931,13.9979381561279,14.0069341659546,14.015941619873,14.0402917861938,14.0730237960815,14.1059093475342,14.1389484405518,14.1721420288086,14.2054929733276,14.2390003204346,14.272665977478,14.3064918518066,14.3404788970947,14.3873634338379,14.4470720291138,14.5072774887085,14.5679883956909,14.6292085647583,14.6909446716309,14.7532052993774,14.8159952163696,14.8793230056763,14.9431934356689,15.0076141357422,15.0725936889648,15.1381378173828,15.2042551040649,15.2709522247314,15.3382368087769,15.4061164855957,15.4746007919312,15.5436954498291,15.613410949707,15.6837539672852,15.7547340393066,15.8263597488403,16.6938972473145,16.7828369140625,16.9592342376709,17.1393775939941,17.323522567749,17.4922180175781,17.6426181793213,17.7956237792969,17.9513092041016,18.1434364318848,18.3546581268311,18.6695213317871,0,0,0,0,0,0,0,0,0,0,0,0,0,0,0,0,0,0,0,0,0,0,0,0,0,0,0,0,0,0,0,0,0,0,0,0,0,0,0,0,0,0,0,0,0,0,0,0,0,0,0,0,0,0,0,0,0,0,0,0,0,0,0,0,0,0,0,0,0,0,0,0,0,0,0,0,0,0,0,0,0,0,0,0,0,0,0,0,0,0,0,0,0,0,0,0,0,0,0,0,0,0,0,0,0,0,0,0,0,0,0,0
11.6031942367554,11.6029739379883,11.6027536392212,11.6025323867798,11.6023120880127,11.6020917892456,11.6018705368042,11.6016502380371,11.60142993927,11.6012096405029,11.6009883880615,11.6007680892944,11.6005477905273,11.6003274917603,11.6001071929932,11.5998868942261,11.5996656417847,11.5994453430176,11.5992250442505,11.5990047454834,11.5987844467163,11.5985641479492,11.5983428955078,11.5981225967407,11.5979022979736,11.5976819992065,11.5974617004395,11.5972414016724,11.5970211029053,11.5968008041382,11.5965805053711,11.596360206604,11.5961399078369,11.5959196090698,11.5956993103027,11.5954790115356,11.5952587127686,11.5950384140015,11.5948181152344,11.5945978164673,11.5943775177002,11.6010055541992,11.6240501403809,11.6471853256226,11.6704130172729,11.6937341690063,11.7171478271484,11.7249631881714,11.7325992584229,11.7402448654175,11.7479009628296,11.7555665969849,11.7632417678833,11.7833366394043,11.8434610366821,11.9042015075684,11.9655694961548,12.0275707244873,12.0902147293091,12.1535139083862,12.2174797058105,12.2821226119995,12.3474531173706,12.4134817123413,12.4802207946777,12.5476818084717,12.6158752441406,12.684814453125,12.7545118331909,12.8249788284302,12.8962278366089,12.9682836532593,13.0411510467529,13.1148414611816,13.1893453598022,13.1939840316772,13.1986255645752,13.2032699584961,13.2079191207886,13.2125701904297,13.2172250747681,13.2218828201294,13.226544380188,13.2312088012695,13.2358770370483,13.2405481338501,13.2452220916748,13.2499008178711,13.254581451416,13.2592658996582,13.2639532089233,13.2686443328857,13.2733392715454,13.278037071228,13.2827377319336,13.2874422073364,13.2921495437622,13.2968606948853,13.3015747070312,13.3062934875488,13.311014175415,13.3157386779785,13.3204660415649,13.3251972198486,13.3299312591553,13.3346700668335,13.3394107818604,13.3441553115845,13.3489036560059,13.3536548614502,13.3584098815918,13.3631677627563,13.3679294586182,13.3726940155029,13.377462387085,13.3822345733643,13.3870086669922,13.3917875289917,13.3965702056885,13.4013547897339,13.4061441421509,13.4109363555908,13.4157314300537,13.4205303192139,13.4253330230713,13.4301385879517,13.4349479675293,13.4397611618042,13.4445772171021,13.4493970870972,13.4542207717896,13.4590473175049,13.4638767242432,13.468710899353,13.4735479354858,13.4783878326416,13.4832324981689,13.4880800247192,13.4929304122925,13.4977855682373,13.5026426315308,13.5075044631958,13.5123691558838,13.517237663269,13.5221099853516,13.526985168457,13.5318641662598,13.5367469787598,13.5416326522827,13.5465221405029,13.5514154434204,13.5563116073608,13.5612125396729,13.5661163330078,13.5710229873657,13.5759344100952,13.5808486938477,13.5857667922974,13.59068775177,13.5956125259399,13.6005411148071,13.6054735183716,13.6104097366333,13.615348815918,13.6202917098999,13.6252384185791,13.6301889419556,13.635142326355,13.6428537368774,13.6513996124268,13.6599550247192,13.6685218811035,13.6770992279053,13.6856870651245,13.6942863464355,13.7028961181641,13.7115163803101,13.7201480865479,13.7287902832031,13.7374429702759,13.7461071014404,13.7547826766968,13.7634677886963,13.7721652984619,13.780873298645,13.7895917892456,13.798321723938,13.8070631027222,13.8158149719238,13.8245782852173,13.8333530426025,13.8421382904053,13.8509349822998,13.8597431182861,13.8685626983643,13.8773927688599,13.8862342834473,13.8950872421265,13.9039506912231,13.9128265380859,13.9217138290405,13.9306116104126,13.9395208358765,13.9484424591064,13.9573745727539,13.9663181304932,13.9752731323242,13.9842405319214,13.993218421936,14.0055150985718,14.0380849838257,14.0708065032959,14.1036806106567,14.1367092132568,14.1698932647705,14.2032327651978,14.2367296218872,14.2703847885132,14.3042001724243,14.3381757736206,14.3723125457764,14.4137620925903,14.473690032959,14.5341186523438,14.5950536727905,14.6565027236938,14.7184705734253,14.7809648513794,14.8439922332764,14.9075593948364,14.9716730117798,15.036340713501,15.1015691757202,15.167366027832,15.233738899231,15.3006954193115,15.3682432174683,15.4363899230957,15.5051441192627,15.5745124816895,15.6445055007935,15.7151298522949,15.7863941192627,15.8583087921143,16.7979640960693,16.9746799468994,17.1551551818848,17.3395900726318,17.5148048400879,17.6655941009521,17.8190021514893,17.97509765625,18.1585845947266,18.3612899780273,18.6763820648193,0,0,0,0,0,0,0,0,0,0,0,0,0,0,0,0,0,0,0,0,0,0,0,0,0,0,0,0,0,0,0,0,0,0,0,0,0,0,0,0,0,0,0,0,0,0,0,0,0,0,0,0,0,0,0,0,0,0,0,0,0,0,0,0,0,0,0,0,0,0,0,0,0,0,0,0,0,0,0,0,0,0,0,0,0,0,0,0,0,0,0,0,0,0,0,0,0,0,0,0,0,0,0,0,0,0,0,0,0,0,0
11.6031188964844,11.6028985977173,11.6026782989502,11.6024570465088,11.6022367477417,11.6020164489746,11.6017961502075,11.6015748977661,11.601354598999,11.6011343002319,11.6009140014648,11.6006937026978,11.6004724502563,11.6002521514893,11.6000318527222,11.5998115539551,11.599591255188,11.5993700027466,11.5991497039795,11.5989294052124,11.5987091064453,11.5984888076782,11.5982685089111,11.598048210144,11.597827911377,11.5976066589355,11.5973863601685,11.5971660614014,11.5969457626343,11.5967254638672,11.5965051651001,11.596284866333,11.5960645675659,11.5958442687988,11.5956239700317,11.5954036712646,11.5951833724976,11.5949630737305,11.5947427749634,11.5945224761963,11.5943021774292,11.6011419296265,11.6241865158081,11.6473226547241,11.6705503463745,11.6938724517822,11.7067394256592,11.7143516540527,11.7219734191895,11.7296056747437,11.737247467041,11.7448997497559,11.7525615692139,11.7832698822021,11.8433933258057,11.9041337966919,11.9654998779297,12.0274991989136,12.0901412963867,12.1534404754639,12.2174053192139,12.2820472717285,12.3473768234253,12.413405418396,12.4801435470581,12.5476026535034,12.6157960891724,12.6847343444824,12.7544298171997,12.8248958587646,12.8961448669434,12.9681987762451,13.0410652160645,13.1147546768188,13.1508798599243,13.1554918289185,13.1601066589355,13.1647243499756,13.1693449020386,13.1739692687988,13.1785974502563,13.1832284927368,13.1878623962402,13.1925001144409,13.1971406936646,13.2017841339111,13.206431388855,13.2110815048218,13.2157354354858,13.2203922271729,13.2250528335571,13.2297163009644,13.2343835830688,13.2390537261963,13.2437267303467,13.2484035491943,13.2530841827393,13.2577667236328,13.2624540328979,13.267144203186,13.2718372344971,13.2765340805054,13.2812337875366,13.2859373092651,13.2906436920166,13.2953538894653,13.300066947937,13.304783821106,13.3095035552979,13.314227104187,13.3189535140991,13.3236837387085,13.3284168243408,13.3331537246704,13.3378934860229,13.3426370620728,13.3473844528198,13.3521347045898,13.3568878173828,13.3616456985474,13.3664054870605,13.371169090271,13.3759365081787,13.3807077407837,13.3854808807373,13.3902587890625,13.3950395584106,13.3998241424561,13.4046115875244,13.40940284729,13.4141969680786,13.4189949035645,13.4237966537476,13.4286012649536,13.4334096908569,13.4382209777832,13.4430360794067,13.4478549957275,13.4526767730713,13.4575023651123,13.4623317718506,13.4671640396118,13.4720001220703,13.4768400192261,13.4816827774048,13.4865283966064,13.4913787841797,13.4962320327759,13.5010890960693,13.5059490203857,13.5108127593994,13.5156803131104,13.5205507278442,13.5254249572754,13.5303030014038,13.5351839065552,13.5400695800781,13.544958114624,13.5498495101929,13.5547456741333,13.5596446990967,13.564546585083,13.5704374313354,13.5788927078247,13.5873575210571,13.595832824707,13.6043195724487,13.6128168106079,13.6213245391846,13.6298418045044,13.6383714675903,13.6469106674194,13.6554613113403,13.6640214920044,13.6725931167603,13.6811761856079,13.6897687911987,13.6983728408813,13.7069883346558,13.7156133651733,13.724250793457,13.7328977584839,13.7415561676025,13.7502250671387,13.7589054107666,13.7675971984863,13.7762994766235,13.7850122451782,13.7937364578247,13.802472114563,13.8112182617188,13.8199758529663,13.8287439346313,13.8375234603882,13.8463144302368,13.8551168441772,13.8639297485352,13.8727540969849,13.8815898895264,13.8904371261597,13.8992948532104,13.9081649780273,13.9170455932617,13.9259376525879,13.9348411560059,13.9437561035156,13.9526824951172,13.9616203308105,13.9705696105957,13.9795303344727,14.0033178329468,14.0358772277832,14.0685892105103,14.1014528274536,14.1344709396362,14.1676445007324,14.2009735107422,14.2344598770142,14.2681045532227,14.301908493042,14.3358736038208,14.3699998855591,14.4042892456055,14.440258026123,14.5004062652588,14.5610589981079,14.622220993042,14.6838989257812,14.7460994720459,14.8088293075562,14.8720941543579,14.93590259552,15.0002613067627,15.0651769638062,15.1306562423706,15.1967077255249,15.2633380889893,15.3305559158325,15.3983678817749,15.4667825698853,15.5358076095581,15.6054525375366,15.675724029541,15.7466306686401,15.8181819915771,16.813117980957,16.9901542663574,17.1709594726562,17.3556861877441,17.5374488830566,17.6886291503906,17.8424396514893,17.9989471435547,18.1737575531006,18.3719463348389,18.6832466125488,0,0,0,0,0,0,0,0,0,0,0,0,0,0,0,0,0,0,0,0,0,0,0,0,0,0,0,0,0,0,0,0,0,0,0,0,0,0,0,0,0,0,0,0,0,0,0,0,0,0,0,0,0,0,0,0,0,0,0,0,0,0,0,0,0,0,0,0,0,0,0,0,0,0,0,0,0,0,0,0,0,0,0,0,0,0,0,0,0,0,0,0,0,0,0,0,0,0,0,0,0,0,0,0,0,0,0,0,0,0
11.6030445098877,11.6028232574463,11.6026029586792,11.6023826599121,11.6021614074707,11.6019411087036,11.6017208099365,11.6015005111694,11.601279258728,11.6010589599609,11.6008386611938,11.6006183624268,11.6003980636597,11.6001768112183,11.5999565124512,11.5997362136841,11.599515914917,11.5992956161499,11.5990753173828,11.5988540649414,11.5986337661743,11.5984134674072,11.5981931686401,11.597972869873,11.597752571106,11.5975322723389,11.5973119735718,11.5970916748047,11.5968713760376,11.5966510772705,11.5964298248291,11.596209526062,11.5959892272949,11.5957689285278,11.5955486297607,11.5953283309937,11.5951080322266,11.5948877334595,11.5946674346924,11.5944471359253,11.5942277908325,11.6012773513794,11.6243228912354,11.6474590301514,11.6706886291504,11.688572883606,11.6961612701416,11.7037601470947,11.7113676071167,11.7189865112305,11.7266139984131,11.7342519760132,11.7419004440308,11.783203125,11.8433256149292,11.9040651321411,11.9654302597046,12.0274267196655,12.0900678634644,12.1533660888672,12.2173309326172,12.2819719314575,12.34730052948,12.4133281707764,12.4800653457642,12.5475244522095,12.6157159805298,12.6846542358398,12.7543487548828,12.8248138427734,12.8960618972778,12.968113899231,13.0409784317017,13.1080570220947,13.1126384735107,13.117223739624,13.1218109130859,13.1264028549194,13.1309967041016,13.135594367981,13.1401948928833,13.1447992324829,13.1494054794312,13.154016494751,13.1586294174194,13.1632471084595,13.1678667068481,13.1724901199341,13.177116394043,13.1817464828491,13.1863794326782,13.1910161972046,13.1956558227539,13.2002983093262,13.2049446105957,13.2095937728882,13.2142467498779,13.2189025878906,13.2235612869263,13.2282247543335,13.2328901290894,13.2375593185425,13.2422323226929,13.2469072341919,13.2515859603882,13.2562685012817,13.2609539031982,13.265643119812,13.2703351974487,13.2750310897827,13.2797298431396,13.2844324111938,13.289137840271,13.2938461303711,13.2985591888428,13.3032741546631,13.3079929351807,13.3127155303955,13.3174409866333,13.3221702575684,13.3269023895264,13.3316383361816,13.3363771438599,13.3411197662354,13.3458652496338,13.3506145477295,13.3553676605225,13.3601236343384,13.3648824691772,13.3696451187134,13.3744115829468,13.3791809082031,13.3839540481567,13.3887300491333,13.3935098648071,13.3982934951782,13.4030799865723,13.4078693389893,13.4126634597778,13.4174604415894,13.4222602844238,13.4270639419556,13.4318714141846,13.4366817474365,13.4414958953857,13.4463129043579,13.4511337280273,13.455958366394,13.460786819458,13.4656181335449,13.4704532623291,13.4752912521362,13.4801330566406,13.4849786758423,13.4898271560669,13.4946794509888,13.4995346069336,13.5071516036987,13.5155277252197,13.5239133834839,13.5323104858398,13.5407180786133,13.5491352081299,13.5575637817383,13.5660018920898,13.5744514465332,13.5829105377197,13.591381072998,13.5998620986938,13.6083536148071,13.6168556213379,13.6253681182861,13.6338911056519,13.6424245834351,13.6509695053101,13.6595249176025,13.6680908203125,13.6766681671143,13.6852550506592,13.6938533782959,13.7024631500244,13.7110834121704,13.7197141647339,13.7283554077148,13.7370080947876,13.7456712722778,13.7543458938599,13.7630319595337,13.771728515625,13.7804355621338,13.7891540527344,13.7978830337524,13.8066234588623,13.815375328064,13.8241386413574,13.8329124450684,13.8416967391968,13.8504934310913,13.8593006134033,13.8681192398071,13.8769483566284,13.8857898712158,13.8946418762207,13.9035053253174,13.9123802185059,13.9212665557861,13.9301643371582,13.9390735626221,13.9479932785034,13.9569253921509,13.9687232971191,14.0011215209961,14.0336713790894,14.0663728713989,14.0992259979248,14.1322336196899,14.1653966903687,14.1987152099609,14.2321910858154,14.2658243179321,14.299617767334,14.333571434021,14.3676872253418,14.4019651412964,14.4364070892334,14.4710149765015,14.5272216796875,14.5880994796753,14.649489402771,14.7113981246948,14.773832321167,14.8367986679077,14.9003038406372,14.9643545150757,15.028959274292,15.094123840332,15.1598558425903,15.2261629104614,15.2930526733398,15.3605327606201,15.4286108016968,15.4972953796387,15.5665941238403,15.6365146636963,15.7070665359497,15.7782583236694,15.8500986099243,17.0056571960449,17.1867942810059,17.3718318939209,17.560152053833,17.7117252349854,17.8659400939941,18.0228614807129,18.1889572143555,18.38720703125,18.6901168823242,0,0,0,0,0,0,0,0,0,0,0,0,0,0,0,0,0,0,0,0,0,0,0,0,0,0,0,0,0,0,0,0,0,0,0,0,0,0,0,0,0,0,0,0,0,0,0,0,0,0,0,0,0,0,0,0,0,0,0,0,0,0,0,0,0,0,0,0,0,0,0,0,0,0,0,0,0,0,0,0,0,0,0,0,0,0,0,0,0,0,0,0,0,0,0,0,0,0,0,0,0,0,0,0,0,0,0,0,0
11.6029691696167,11.6027488708496,11.6025276184082,11.6023073196411,11.602087020874,11.6018657684326,11.6016454696655,11.6014251708984,11.6012048721313,11.6009836196899,11.6007633209229,11.6005430221558,11.6003227233887,11.6001024246216,11.5998811721802,11.5996608734131,11.599440574646,11.5992202758789,11.5989999771118,11.5987796783447,11.5985593795776,11.5983381271362,11.5981178283691,11.5978975296021,11.597677230835,11.5974569320679,11.5972366333008,11.5970163345337,11.5967960357666,11.5965757369995,11.5963554382324,11.5961351394653,11.5959148406982,11.5956945419312,11.5954742431641,11.595253944397,11.5950336456299,11.5948133468628,11.5945930480957,11.5943727493286,11.5941524505615,11.6014137268066,11.6244592666626,11.6475963592529,11.6704626083374,11.6780271530151,11.6856021881104,11.6931867599487,11.7007818222046,11.7083854675293,11.7159996032715,11.7236242294312,11.731258392334,11.7831354141235,11.8432579040527,11.9039974212646,11.9653587341309,12.0273542404175,12.0899953842163,12.1532926559448,12.2172555923462,12.2818965911865,12.3472242355347,12.4132509231567,12.4799871444702,12.5474452972412,12.6156368255615,12.6845731735229,12.7542676925659,12.8247318267822,12.8959789276123,12.9680290222168,13.0408926010132,13.0700645446777,13.0746192932129,13.0791778564453,13.0837383270264,13.0883026123047,13.0928707122803,13.0974416732788,13.1020154953003,13.1065921783447,13.1111726760864,13.1157560348511,13.120343208313,13.1249332427979,13.12952709198,13.1341228485107,13.1387233734131,13.1433258056641,13.1479320526123,13.1525411605835,13.157154083252,13.1617698669434,13.1663885116577,13.1710109710693,13.1756362915039,13.1802654266357,13.1848974227905,13.1895322799683,13.1941709518433,13.1988124847412,13.2034578323364,13.2081060409546,13.21275806427,13.2174129486084,13.2220706939697,13.2267322540283,13.2313976287842,13.236065864563,13.2407369613647,13.2454118728638,13.2500896453857,13.2547702789307,13.2594547271729,13.2641429901123,13.2688341140747,13.2735290527344,13.278226852417,13.2829275131226,13.2876319885254,13.2923402786255,13.2970514297485,13.3017654418945,13.3064832687378,13.3112049102783,13.3159294128418,13.3206567764282,13.3253879547119,13.3301229476929,13.3348608016968,13.3396024703979,13.3443470001221,13.3490953445435,13.3538465499878,13.3586015701294,13.3633594512939,13.3681211471558,13.3728866577148,13.3776550292969,13.3824262619019,13.3872022628784,13.3919811248779,13.3967628479004,13.4015483856201,13.4063367843628,13.4111299514771,13.4159250259399,13.4207239151001,13.4255275726318,13.4303331375122,13.436164855957,13.4444532394409,13.452751159668,13.4610595703125,13.4693784713745,13.477707862854,13.486047744751,13.4943971633911,13.5027570724487,13.5111274719238,13.5195083618164,13.5278997421265,13.536301612854,13.544713973999,13.5531368255615,13.5615692138672,13.5700130462646,13.5784673690796,13.586932182312,13.5954074859619,13.6038932800293,13.6123895645142,13.6208963394165,13.6294136047363,13.6379423141479,13.6464815139771,13.6550312042236,13.6635913848877,13.6721630096436,13.6807441711426,13.6893377304077,13.697940826416,13.7065553665161,13.7151803970337,13.7238159179688,13.7324628829956,13.7411212921143,13.7497892379761,13.758469581604,13.7671604156494,13.7758617401123,13.784574508667,13.7932977676392,13.8020324707031,13.8107786178589,13.8195352554321,13.8283033370972,13.837082862854,13.8458728790283,13.8546743392944,13.8634872436523,13.8723106384277,13.8811454772949,13.8899917602539,13.8988494873047,13.9077186584473,13.9165992736816,13.9254903793335,13.9343938827515,13.9433078765869,13.9665384292603,13.9989261627197,14.0314655303955,14.0641565322876,14.0970001220703,14.129997253418,14.1631498336792,14.196457862854,14.2299222946167,14.2635459899902,14.2973279953003,14.3312711715698,14.3653755187988,14.3996419906616,14.4340734481812,14.4686689376831,14.5034313201904,14.5541372299194,14.6152400970459,14.6768589019775,14.7390003204346,14.8016691207886,14.8648729324341,14.9286193847656,14.9929151535034,15.0577669143677,15.1231822967529,15.1891679763794,15.2557325363159,15.3228826522827,15.3906269073486,15.4589729309082,15.527928352356,15.5975017547607,15.6677017211914,15.7385358810425,15.8100137710571,17.0211887359619,17.202657699585,17.3880386352539,17.5776081085205,17.7348823547363,17.8895015716553,18.0468406677246,18.2069702148438,18.4024963378906,18.6969909667969,0,0,0,0,0,0,0,0,0,0,0,0,0,0,0,0,0,0,0,0,0,0,0,0,0,0,0,0,0,0,0,0,0,0,0,0,0,0,0,0,0,0,0,0,0,0,0,0,0,0,0,0,0,0,0,0,0,0,0,0,0,0,0,0,0,0,0,0,0,0,0,0,0,0,0,0,0,0,0,0,0,0,0,0,0,0,0,0,0,0,0,0,0,0,0,0,0,0,0,0,0,0,0,0,0,0,0,0
11.6028938293457,11.6026735305786,11.6024522781372,11.6022319793701,11.602011680603,11.6017913818359,11.6015701293945,11.6013498306274,11.6011295318604,11.6009092330933,11.6006889343262,11.6004676818848,11.6002473831177,11.6000270843506,11.5998067855835,11.5995864868164,11.599365234375,11.5991449356079,11.5989246368408,11.5987043380737,11.5984840393066,11.5982637405396,11.5980434417725,11.5978231430054,11.597601890564,11.5973815917969,11.5971612930298,11.5969409942627,11.5967206954956,11.5965003967285,11.5962800979614,11.5960597991943,11.5958395004272,11.5956192016602,11.5953989028931,11.595178604126,11.5949583053589,11.5947380065918,11.5945177078247,11.5942974090576,11.5940771102905,11.6015491485596,11.6245956420898,11.6477327346802,11.6599493026733,11.6675004959106,11.6750621795654,11.6826333999634,11.6902141571045,11.6978044509888,11.7054052352905,11.7130155563354,11.7235546112061,11.7830686569214,11.8431901931763,11.9039278030396,11.9652872085571,12.0272817611694,12.0899219512939,12.1532182693481,12.2171812057495,12.2818202972412,12.3471479415894,12.4131736755371,12.4799098968506,12.5473670959473,12.6155567169189,12.6844930648804,12.7541856765747,12.8246488571167,12.8958950042725,12.9679431915283,13.0277652740479,13.0322914123535,13.0368194580078,13.0413513183594,13.0458860397339,13.0504245758057,13.0549659729004,13.0595102310181,13.0640573501587,13.0686082839966,13.0731620788574,13.0777196884155,13.0822792053223,13.0868425369263,13.0914096832275,13.0959796905518,13.1005525588989,13.105128288269,13.1097078323364,13.1142902374268,13.1188764572144,13.1234655380249,13.1280574798584,13.1326522827148,13.1372509002686,13.1418533325195,13.1464576721191,13.151065826416,13.1556777954102,13.1602926254272,13.1649103164673,13.1695318222046,13.1741561889648,13.1787843704224,13.1834154129028,13.1880493164062,13.1926870346069,13.1973276138306,13.2019720077515,13.2066192626953,13.2112693786621,13.2159233093262,13.2205810546875,13.2252407073975,13.229905128479,13.2345714569092,13.2392425537109,13.2439155578613,13.248592376709,13.2532730102539,13.2579565048218,13.2626428604126,13.2673330307007,13.272027015686,13.2767238616943,13.2814235687256,13.2861270904541,13.2908334732056,13.2955436706543,13.3002576828003,13.3049745559692,13.3096942901611,13.3144178390503,13.3191442489624,13.3238744735718,13.3286085128784,13.3333444595337,13.3380851745605,13.3428287506104,13.3475761413574,13.3523263931274,13.3570804595947,13.361837387085,13.3665981292725,13.3741216659546,13.3823337554932,13.3905553817749,13.3987874984741,13.4070301055908,13.4152822494507,13.4235439300537,13.4318170547485,13.4400997161865,13.448392868042,13.4566955566406,13.4650087356567,13.4733324050903,13.4816665649414,13.49001121521,13.498366355896,13.5067310333252,13.5151062011719,13.523491859436,13.531888961792,13.5402956008911,13.5487127304077,13.5571393966675,13.565577507019,13.5740270614624,13.5824861526489,13.5909557342529,13.5994358062744,13.6079263687134,13.6164283752441,13.6249399185181,13.6334629058838,13.641996383667,13.6505403518677,13.6590948104858,13.6676607131958,13.6762371063232,13.6848239898682,13.6934213638306,13.7020301818848,13.7106494903564,13.7192802429199,13.7279214859009,13.7365732192993,13.7452363967896,13.7539100646973,13.7625951766968,13.7712907791138,13.7799978256226,13.7887153625488,13.7974443435669,13.8061847686768,13.8149356842041,13.8236980438232,13.8324708938599,13.8412551879883,13.8500509262085,13.8588581085205,13.86767578125,13.8765048980713,13.8853454589844,13.8941974639893,13.9030599594116,13.9119338989258,13.9208202362061,13.9321241378784,13.9643535614014,13.9967317581177,14.029260635376,14.0619411468506,14.0947742462158,14.1277618408203,14.1609029769897,14.1942005157471,14.2276544570923,14.2612676620483,14.2950391769409,14.3289709091187,14.3630638122559,14.3973207473755,14.4317398071289,14.4663248062134,14.5010757446289,14.5359945297241,14.581151008606,14.6424827575684,14.7043323516846,14.7667055130005,14.8296117782593,14.8930549621582,14.9570436477661,15.0215845108032,15.0866851806641,15.1523523330688,15.2185935974121,15.2854175567627,15.3528299331665,15.4208393096924,15.4894542694092,15.5586824417114,15.628532409668,15.6990127563477,15.770131111145,17.0367488861084,17.2185516357422,17.4042778015137,17.5941505432129,17.7581005096436,17.9131259918213,18.0708808898926,18.2314414978027,18.4178085327148,18.7038726806641,0,0,0,0,0,0,0,0,0,0,0,0,0,0,0,0,0,0,0,0,0,0,0,0,0,0,0,0,0,0,0,0,0,0,0,0,0,0,0,0,0,0,0,0,0,0,0,0,0,0,0,0,0,0,0,0,0,0,0,0,0,0,0,0,0,0,0,0,0,0,0,0,0,0,0,0,0,0,0,0,0,0,0,0,0,0,0,0,0,0,0,0,0,0,0,0,0,0,0,0,0,0,0,0,0,0,0
11.6028184890747,11.6025981903076,11.6023778915405,11.6021566390991,11.601936340332,11.6017160415649,11.6014957427979,11.6012744903564,11.6010541915894,11.6008338928223,11.6006135940552,11.6003932952881,11.6001720428467,11.5999517440796,11.5997314453125,11.5995111465454,11.5992908477783,11.5990705490112,11.5988492965698,11.5986289978027,11.5984086990356,11.5981884002686,11.5979681015015,11.5977478027344,11.5975275039673,11.5973072052002,11.5970869064331,11.596866607666,11.5966453552246,11.5964250564575,11.5962047576904,11.5959844589233,11.5957641601562,11.5955438613892,11.5953235626221,11.595103263855,11.5948829650879,11.5946626663208,11.5944423675537,11.5942230224609,11.5940027236938,11.6016855239868,11.6247320175171,11.6419277191162,11.6494560241699,11.6569929122925,11.6645412445068,11.67209815979,11.6796655654907,11.6872425079346,11.6948289871216,11.7024259567261,11.7234878540039,11.7830018997192,11.8431224822998,11.9038572311401,11.9652147293091,12.0272092819214,12.0898485183716,12.1531448364258,12.2171068191528,12.2817449569702,12.347071647644,12.4130964279175,12.4798316955566,12.547287940979,12.6154775619507,12.6844120025635,12.7541046142578,12.8245668411255,12.8958120346069,12.9678583145142,12.9902362823486,12.9947357177734,12.9992380142212,13.0037431716919,13.0082521438599,13.0127639770508,13.017279624939,13.0217971801758,13.0263185501099,13.0308427810669,13.0353708267212,13.0399017333984,13.0444355010986,13.0489721298218,13.0535125732422,13.0580558776855,13.0626020431519,13.0671520233154,13.071704864502,13.0762605667114,13.0808200836182,13.0853824615479,13.0899477005005,13.0945167541504,13.0990886688232,13.1036643981934,13.1082420349121,13.1128234863281,13.1174087524414,13.1219968795776,13.1265878677368,13.1311817169189,13.1357793807983,13.140380859375,13.1449842453003,13.1495923995972,13.1542024612427,13.1588163375854,13.1634330749512,13.1680536270142,13.1726770401001,13.177303314209,13.1819334030151,13.1865663528442,13.1912031173706,13.1958427429199,13.2004861831665,13.205132484436,13.2097816467285,13.2144346237183,13.219090461731,13.2237501144409,13.2284126281738,13.233078956604,13.2377481460571,13.2424201965332,13.2470960617065,13.2517757415771,13.2564573287964,13.2611436843872,13.265832901001,13.2705249786377,13.2752208709717,13.2799196243286,13.2846221923828,13.28932762146,13.2940368652344,13.2987489700317,13.3045234680176,13.3126497268677,13.3207864761353,13.328932762146,13.3370885848999,13.3452548980713,13.3534317016602,13.3616180419922,13.3698139190674,13.3780202865601,13.3862371444702,13.3944635391235,13.4027004241943,13.4109468460083,13.4192037582397,13.4274711608887,13.4357490539551,13.4440364837646,13.4523344039917,13.4606428146362,13.4689607620239,13.4772891998291,13.4856281280518,13.4939775466919,13.5023374557495,13.5107069015503,13.5190877914429,13.5274782180786,13.5358791351318,13.5442914962769,13.552713394165,13.5611457824707,13.5695886611938,13.5780420303345,13.5865068435669,13.5949811935425,13.6034660339355,13.6119623184204,13.6204690933228,13.6289863586426,13.6375141143799,13.6460523605347,13.6546010971069,13.663161277771,13.6717319488525,13.6803131103516,13.6889057159424,13.6975078582764,13.7061223983765,13.7147464752197,13.7233819961548,13.7320289611816,13.7406854629517,13.7493543624878,13.7580327987671,13.7667236328125,13.7754240036011,13.7841367721558,13.7928590774536,13.8015937805176,13.810338973999,13.8190956115723,13.827862739563,13.8366413116455,13.8454303741455,13.8542318344116,13.8630437850952,13.8718671798706,13.8807020187378,13.8895473480225,13.8984041213989,13.9072732925415,13.9299507141113,13.9621696472168,13.9945383071899,14.0270566940308,14.0597267150879,14.0925493240356,14.1255264282227,14.1586570739746,14.1919441223145,14.2253875732422,14.2589893341064,14.2927503585815,14.3266716003418,14.3607540130615,14.394998550415,14.4294080734253,14.463981628418,14.4987211227417,14.5336284637451,14.5687036514282,14.6082668304443,14.6698265075684,14.7319078445435,14.7945165634155,14.8576593399048,14.9213438034058,14.9855766296387,15.0503644943237,15.1157150268555,15.1816358566284,15.2481346130371,15.3152179718018,15.3828935623169,15.4511709213257,15.5200567245483,15.5895595550537,15.6596870422363,15.7304487228394,15.8018531799316,17.2344741821289,17.4205455780029,17.610725402832,17.7813777923584,17.9368114471436,18.0949878692627,18.2559776306152,18.4331893920898,0,0,0,0,0,0,0,0,0,0,0,0,0,0,0,0,0,0,0,0,0,0,0,0,0,0,0,0,0,0,0,0,0,0,0,0,0,0,0,0,0,0,0,0,0,0,0,0,0,0,0,0,0,0,0,0,0,0,0,0,0,0,0,0,0,0,0,0,0,0,0,0,0,0,0,0,0,0,0,0,0,0,0,0,0,0,0,0,0,0,0,0,0,0,0,0,0,0,0,0,0,0,0,0,0,0,0
11.602744102478,11.6025228500366,11.6023025512695,11.6020822525024,11.601861000061,11.6016407012939,11.6014204025269,11.6012001037598,11.6009788513184,11.6007585525513,11.6005382537842,11.6003179550171,11.60009765625,11.5998764038086,11.5996561050415,11.5994358062744,11.5992155075073,11.5989952087402,11.5987749099731,11.5985546112061,11.5983333587646,11.5981130599976,11.5978927612305,11.5976724624634,11.5974521636963,11.5972318649292,11.5970115661621,11.596791267395,11.5965709686279,11.5963506698608,11.5961303710938,11.5959100723267,11.5956897735596,11.5954694747925,11.5952491760254,11.5950288772583,11.5948085784912,11.5945882797241,11.594367980957,11.5941476821899,11.5939273834229,11.6018209457397,11.6239614486694,11.6314659118652,11.6389808654785,11.6465044021606,11.6540384292603,11.6615829467773,11.6691360473633,11.6766996383667,11.6842727661133,11.691855430603,11.7234220504761,11.7829351425171,11.8430547714233,11.9037857055664,11.9651432037354,12.0271368026733,12.0897760391235,12.1530704498291,12.2170314788818,12.2816696166992,12.3469953536987,12.4130191802979,12.4797534942627,12.5472087860107,12.6153974533081,12.6843318939209,12.7540235519409,12.8244848251343,12.8957290649414,12.9484510421753,12.9529218673706,12.9573955535889,12.9618721008301,12.9663524627686,12.9708347320557,12.97532081604,12.9798097610474,12.984302520752,12.9887971878052,12.9932956695557,12.9977970123291,13.0023021697998,13.0068101882935,13.0113210678101,13.0158348083496,13.0203514099121,13.0248718261719,13.0293960571289,13.0339221954346,13.0384521484375,13.0429849624634,13.0475206375122,13.0520601272583,13.0566024780273,13.0611476898193,13.0656967163086,13.0702486038208,13.074803352356,13.0793619155884,13.0839233398438,13.0884876251221,13.0930547714233,13.0976257324219,13.1022005081177,13.1067771911621,13.1113576889038,13.1159420013428,13.1205282211304,13.1251192092896,13.1297121047974,13.1343088150024,13.1389083862305,13.1435117721558,13.148118019104,13.1527271270752,13.1573400497437,13.1619558334351,13.1665754318237,13.1711978912354,13.1758232116699,13.1804523468018,13.1850843429565,13.1897201538086,13.1943588256836,13.1990003585815,13.2036457061768,13.2082939147949,13.2129459381104,13.2176008224487,13.2222595214844,13.226921081543,13.2315855026245,13.2362537384033,13.2436876296997,13.2517395019531,13.259801864624,13.2678737640381,13.2759552001953,13.28404712677,13.2921485900879,13.3002595901489,13.3083810806274,13.3165121078491,13.3246536254883,13.3328046798706,13.3409652709961,13.3491363525391,13.3573179244995,13.3655090332031,13.3737096786499,13.3819208145142,13.3901424407959,13.3983736038208,13.4066152572632,13.414867401123,13.4231290817261,13.4314012527466,13.4396829605103,13.4479751586914,13.4562788009644,13.4645910263062,13.4729146957397,13.4812479019165,13.4895915985107,13.4979457855225,13.5063104629517,13.5146856307983,13.5230703353882,13.5314664840698,13.5398731231689,13.5482892990112,13.556715965271,13.5651540756226,13.5736017227173,13.5820608139038,13.5905294418335,13.599009513855,13.6075000762939,13.6160001754761,13.62451171875,13.6330347061157,13.6415672302246,13.6501111984253,13.6586647033691,13.6672296524048,13.6758060455322,13.6843919754028,13.6929893493652,13.7015972137451,13.7102165222168,13.718846321106,13.7274866104126,13.736138343811,13.744800567627,13.7534742355347,13.7621583938599,13.7708539962769,13.7795600891113,13.7882776260376,13.7970056533813,13.8057451248169,13.8144960403442,13.8232574462891,13.8320302963257,13.8408136367798,13.8496084213257,13.8584146499634,13.8672323226929,13.8760614395142,13.8849010467529,13.8957166671753,13.9277772903442,13.9599866867065,13.9923448562622,14.0248537063599,14.0575132369995,14.0903253555298,14.1232919692993,14.1564121246338,14.1896886825562,14.2231216430664,14.2567129135132,14.2904624938965,14.3243732452393,14.3584442138672,14.3926782608032,14.4270763397217,14.4616384506226,14.4963665008545,14.5312623977661,14.5663270950317,14.6015605926514,14.6369647979736,14.6972732543945,14.7595872879028,14.8224315643311,14.8858137130737,14.9497404098511,15.0142183303833,15.0792541503906,15.1448564529419,15.2110328674316,15.2777891159058,15.3451347351074,15.4130754470825,15.4816217422485,15.5507793426514,15.6205587387085,15.6909666061401,15.7620115280151,17.2504253387451,17.4368438720703,17.6273345947266,17.8047161102295,17.9605617523193,18.1191577911377,18.2805805206299,18.4488258361816,0,0,0,0,0,0,0,0,0,0,0,0,0,0,0,0,0,0,0,0,0,0,0,0,0,0,0,0,0,0,0,0,0,0,0,0,0,0,0,0,0,0,0,0,0,0,0,0,0,0,0,0,0,0,0,0,0,0,0,0,0,0,0,0,0,0,0,0,0,0,0,0,0,0,0,0,0,0,0,0,0,0,0,0,0,0,0,0,0,0,0,0,0,0,0,0,0,0,0,0,0,0,0,0,0,0
11.602668762207,11.6024475097656,11.6022272109985,11.6020069122314,11.6017866134644,11.6015653610229,11.6013450622559,11.6011247634888,11.6009044647217,11.6006841659546,11.6004629135132,11.6002426147461,11.600022315979,11.5998020172119,11.5995817184448,11.5993604660034,11.5991401672363,11.5989198684692,11.5986995697021,11.5984792709351,11.598258972168,11.5980386734009,11.5978183746338,11.5975971221924,11.5973768234253,11.5971565246582,11.5969362258911,11.596715927124,11.5964956283569,11.5962753295898,11.5960550308228,11.5958347320557,11.5956144332886,11.5953941345215,11.5951738357544,11.5949535369873,11.5947332382202,11.5945129394531,11.594292640686,11.5940723419189,11.5938520431519,11.601957321167,11.6135320663452,11.6210231781006,11.6285238265991,11.6360349655151,11.6435556411743,11.6510858535767,11.6586256027222,11.6661748886108,11.673734664917,11.6813039779663,11.7233562469482,11.7828683853149,11.8429841995239,11.903715133667,11.9650716781616,12.0270643234253,12.0897026062012,12.1529970169067,12.2169570922852,12.2815942764282,12.3469190597534,12.4129419326782,12.4796752929688,12.5471305847168,12.6153182983398,12.684250831604,12.7315282821655,12.7412033081055,12.8956460952759,12.911376953125,12.9158220291138,12.9202699661255,12.9247207641602,12.9291744232178,12.9336318969727,12.9380922317505,12.9425554275513,12.947021484375,12.951491355896,12.9559640884399,12.9604396820068,12.9649181365967,12.9694004058838,12.9738855361938,12.9783735275269,12.9828653335571,12.987359046936,12.9918565750122,12.9963569641113,13.0008602142334,13.0053672790527,13.009877204895,13.0143899917603,13.0189065933228,13.0234260559082,13.0279483795166,13.0324735641479,13.0370025634766,13.0415344238281,13.0460691452026,13.0506076812744,13.0551490783691,13.0596933364868,13.0642414093018,13.0687923431396,13.0733461380005,13.0779027938843,13.0824632644653,13.0870275497437,13.0915937423706,13.0961637496948,13.100736618042,13.1053133010864,13.1098928451538,13.1144752502441,13.1190614700317,13.1236505508423,13.1282424926758,13.1328382492065,13.1374368667603,13.1420392990112,13.1466436386108,13.151252746582,13.1558637619019,13.1604785919189,13.1650972366333,13.1697187423706,13.1754360198975,13.1834058761597,13.1913843154907,13.1993732452393,13.207371711731,13.2153797149658,13.2233982086182,13.2314252853394,13.239462852478,13.2475099563599,13.2555665969849,13.2636337280273,13.271710395813,13.2797966003418,13.2878932952881,13.2959995269775,13.3041152954102,13.3122415542603,13.3203773498535,13.3285226821899,13.3366785049438,13.3448448181152,13.3530206680298,13.3612060546875,13.3694019317627,13.3776082992554,13.3858242034912,13.3940496444702,13.402286529541,13.410532951355,13.4187889099121,13.427056312561,13.4353322982788,13.4436197280884,13.4519166946411,13.4602251052856,13.4685430526733,13.4768705368042,13.4852094650269,13.4935579299927,13.501916885376,13.5102863311768,13.518666267395,13.5270566940308,13.5354566574097,13.5438680648804,13.5522899627686,13.5607213973999,13.569164276123,13.5776176452637,13.5860815048218,13.594554901123,13.6030397415161,13.6115350723267,13.6200408935547,13.6285581588745,13.6370849609375,13.6456232070923,13.6541719436646,13.6627311706543,13.6713008880615,13.6798820495605,13.6884737014771,13.697075843811,13.7056894302368,13.7143135070801,13.7229480743408,13.7315940856934,13.7402505874634,13.7489185333252,13.7575969696045,13.7662868499756,13.7749872207642,13.7836980819702,13.7924213409424,13.8011541366577,13.8098993301392,13.8186550140381,13.8274221420288,13.836199760437,13.844988822937,13.8537893295288,13.8626012802124,13.8714237213135,13.8935546875,13.9256057739258,13.9578037261963,13.9901523590088,14.022650718689,14.0552997589111,14.0881023406982,14.121057510376,14.1541681289673,14.1874332427979,14.2208557128906,14.2544364929199,14.2881755828857,14.3220748901367,14.3561353683472,14.3903589248657,14.4247455596924,14.4592962265015,14.4940137863159,14.5288982391357,14.5639505386353,14.5991725921631,14.6345653533936,14.6701307296753,14.7248220443726,14.7873706817627,14.8504524230957,14.9140748977661,14.9782447814941,15.0429697036743,15.1082553863525,15.174111366272,15.2405433654785,15.307559967041,15.3751678466797,15.4433765411377,15.5121927261353,15.5816249847412,15.6516809463501,15.7223701477051,15.793701171875,17.4531726837158,17.644021987915,17.8281173706055,17.9843730926514,18.1433925628662,18.3052501678467,18.4700202941895,0,0,0,0,0,0,0,0,0,0,0,0,0,0,0,0,0,0,0,0,0,0,0,0,0,0,0,0,0,0,0,0,0,0,0,0,0,0,0,0,0,0,0,0,0,0,0,0,0,0,0,0,0,0,0,0,0,0,0,0,0,0,0,0,0,0,0,0,0,0,0,0,0,0,0,0,0,0,0,0,0,0,0,0,0,0,0,0,0,0,0,0,0,0,0,0,0,0,0,0,0,0,0,0,0
11.602593421936,11.6023731231689,11.6021518707275,11.6019315719604,11.6017112731934,11.6014909744263,11.6012697219849,11.6010494232178,11.6008291244507,11.6006088256836,11.6003885269165,11.6001672744751,11.599946975708,11.5997266769409,11.5995063781738,11.5992860794067,11.5990657806396,11.5988445281982,11.5986242294312,11.5984039306641,11.598183631897,11.5979633331299,11.5977430343628,11.5975227355957,11.5973024368286,11.5970821380615,11.5968618392944,11.596640586853,11.5964202880859,11.5961999893188,11.5959796905518,11.5957593917847,11.5955390930176,11.5953187942505,11.5950984954834,11.5948781967163,11.5946578979492,11.5944375991821,11.594217300415,11.5939979553223,11.5937776565552,11.5956525802612,11.603120803833,11.6105995178223,11.6180868148804,11.6255836486816,11.6330909729004,11.6406078338623,11.6481342315674,11.6556701660156,11.663215637207,11.6707715988159,11.7232894897461,11.7828006744385,11.8429145812988,11.9036445617676,11.9650001525879,12.0269918441772,12.0896291732788,12.1529226303101,12.2168827056885,12.2815189361572,12.3468427658081,12.4128656387329,12.4795980453491,12.5470514297485,12.6152381896973,12.6840553283691,12.6936588287354,12.703275680542,12.712908744812,12.7225551605225,12.732216835022,12.7418928146362,12.7515840530396,12.7612895965576,12.7710103988647,12.7807455062866,12.7904958724976,12.8002605438232,12.810040473938,12.8198356628418,12.8296451568604,12.839469909668,12.8493099212646,12.8591651916504,12.8690357208252,12.945592880249,12.9500617980957,12.954532623291,12.9590082168579,12.9634857177734,12.9679670333862,12.9724502563477,12.9769372940063,12.9814281463623,12.9859209060669,12.9904174804688,12.9949169158936,12.9994192123413,13.0039253234863,13.0084342956543,13.0129461288452,13.0174617767334,13.0219793319702,13.0265016555786,13.0310258865356,13.0355539321899,13.0400848388672,13.0446186065674,13.0491561889648,13.0536956787109,13.0582399368286,13.0627861022949,13.0673360824585,13.071888923645,13.0764446258545,13.0810041427612,13.0855665206909,13.0901327133179,13.0947017669678,13.0992736816406,13.1038484573364,13.1084270477295,13.1157722473145,13.1236696243286,13.1315765380859,13.1394929885864,13.1474189758301,13.1553554534912,13.1633005142212,13.1712551116943,13.1792192459106,13.1871938705444,13.1951770782471,13.2031707763672,13.2111740112305,13.2191867828369,13.2272090911865,13.2352409362793,13.2432832717896,13.251335144043,13.2593965530396,13.2674684524536,13.2755489349365,13.2836408615112,13.2917413711548,13.2998523712158,13.30797290802,13.3161039352417,13.3242444992065,13.3323945999146,13.34055519104,13.348726272583,13.3569059371948,13.3650970458984,13.3732976913452,13.3815078735352,13.3897294998169,13.3979597091675,13.4062013626099,13.4144525527954,13.4227132797241,13.4309854507446,13.4392671585083,13.4475584030151,13.4558610916138,13.4641733169556,13.4724960327148,13.4808292388916,13.4891729354858,13.4975261688232,13.5058898925781,13.5142650604248,13.5226497650146,13.5310440063477,13.5394496917725,13.5478658676147,13.5562925338745,13.5647296905518,13.5731773376465,13.5816354751587,13.5901041030884,13.5985832214355,13.6070728302002,13.6155729293823,13.6240844726562,13.6326055526733,13.6411380767822,13.6496810913086,13.6582345962524,13.6667995452881,13.6753749847412,13.6839609146118,13.6925573348999,13.7011651992798,13.7097835540771,13.718412399292,13.7270526885986,13.7357034683228,13.7443656921387,13.7530384063721,13.7617216110229,13.7704162597656,13.7791223526001,13.7878389358521,13.7965669631958,13.805305480957,13.8140554428101,13.8228168487549,13.8315887451172,13.8403720855713,13.8491668701172,13.8594999313354,13.8913927078247,13.923433303833,13.9556226730347,13.9879598617554,14.0204486846924,14.0530881881714,14.0858793258667,14.1188249588013,14.1519241333008,14.1851797103882,14.2185916900635,14.252161026001,14.2858896255493,14.3197774887085,14.3538274765015,14.3880395889282,14.4224147796631,14.4569549560547,14.4916610717773,14.5265340805054,14.5615749359131,14.5967855453491,14.6321668624878,14.6677207946777,14.7034473419189,14.7524747848511,14.8152589797974,14.8785791397095,14.9424438476562,15.0068578720093,15.0718307495117,15.1373691558838,15.2034788131714,15.2701692581177,15.3374462127686,15.4053201675415,15.4737968444824,15.5428848266602,15.6125926971436,15.6829280853271,15.7539005279541,17.4780521392822,17.6607418060303,17.8515796661377,18.0082492828369,18.1676921844482,18.329984664917,18.4952030181885,0,0,0,0,0,0,0,0,0,0,0,0,0,0,0,0,0,0,0,0,0,0,0,0,0,0,0,0,0,0,0,0,0,0,0,0,0,0,0,0,0,0,0,0,0,0,0,0,0,0,0,0,0,0,0,0,0,0,0,0,0,0,0,0,0,0,0,0,0,0,0,0,0,0,0,0,0,0,0,0,0,0,0,0,0,0,0,0,0,0,0,0,0,0,0,0,0,0,0,0,0,0,0,0
11.602518081665,11.6022977828979,11.6020774841309,11.6018562316895,11.6016359329224,11.6014156341553,11.6011953353882,11.6009740829468,11.6007537841797,11.6005334854126,11.6003131866455,11.6000928878784,11.599871635437,11.5996513366699,11.5994310379028,11.5992107391357,11.5989904403687,11.5987701416016,11.5985498428345,11.5983285903931,11.598108291626,11.5978879928589,11.5976676940918,11.5974473953247,11.5972270965576,11.5970067977905,11.5967864990234,11.5965662002563,11.5963459014893,11.5961256027222,11.5959053039551,11.595685005188,11.5954647064209,11.5952444076538,11.5950241088867,11.5948038101196,11.5945835113525,11.5943632125854,11.5941429138184,11.5939226150513,11.5937023162842,11.5934820175171,11.59326171875,11.600193977356,11.6076679229736,11.6151514053345,11.6226453781128,11.6301488876343,11.6376609802246,11.6451835632324,11.6527156829834,11.6643104553223,11.7232236862183,11.7827310562134,11.8428440093994,11.9035730361938,11.9649286270142,12.0269193649292,12.0895566940308,12.1528491973877,12.2168073654175,12.2814435958862,12.3467664718628,12.4127883911133,12.4795198440552,12.5469732284546,12.615159034729,12.6464529037476,12.6560001373291,12.6655616760254,12.6751375198364,12.6847276687622,12.6943321228027,12.7039518356323,12.7135858535767,12.7232341766357,12.7328977584839,12.7425756454468,12.7522687911987,12.7619752883911,12.7716979980469,12.7814350128174,12.791187286377,12.8009538650513,12.8107357025146,12.8205318450928,12.8303442001343,12.8401708602905,12.8500118255615,12.8598680496216,12.8697385787964,12.8796253204346,12.8895273208618,12.8994436264038,12.9093761444092,12.9193239212036,12.9292860031128,12.9392642974854,12.949257850647,12.959267616272,12.9665327072144,12.9710159301758,12.9755020141602,12.9799909591675,12.9844837188721,12.9889793395996,12.9934778213501,12.9979791641235,13.0024833679199,13.0069923400879,13.0115032196045,13.016016960144,13.0205345153809,13.0250549316406,13.0295782089233,13.034104347229,13.0386352539062,13.0431680679321,13.0488300323486,13.0566463470459,13.0644731521606,13.0723085403442,13.0801544189453,13.0880088806152,13.0958728790283,13.1037464141846,13.111629486084,13.1195211410522,13.127423286438,13.1353349685669,13.143256187439,13.1511869430542,13.1591272354126,13.1670761108398,13.1750364303589,13.1830053329468,13.1909837722778,13.1989717483521,13.2069702148438,13.2149772644043,13.2229948043823,13.2310218811035,13.2390594482422,13.2471055984497,13.2551622390747,13.2632284164429,13.2713041305542,13.279390335083,13.287486076355,13.2955913543701,13.3037071228027,13.3118324279785,13.3199682235718,13.3281135559082,13.3362684249878,13.3444337844849,13.3526096343994,13.3607950210571,13.368989944458,13.3771953582764,13.3854112625122,13.3936367034912,13.4018726348877,13.4101181030273,13.4183740615845,13.4266405105591,13.4349164962769,13.4432029724121,13.4514999389648,13.4598073959351,13.4681243896484,13.4764518737793,13.4847898483276,13.4931383132935,13.5014963150024,13.5098657608032,13.5182447433472,13.5266351699829,13.5350351333618,13.5434455871582,13.5518665313721,13.5602979660034,13.5687398910522,13.5771923065186,13.5856552124023,13.5941295623779,13.6026134490967,13.6111078262329,13.6196136474609,13.6281299591064,13.6366567611694,13.6451940536499,13.6537418365479,13.6623010635376,13.6708698272705,13.6794509887695,13.6880416870117,13.6966438293457,13.7052564620972,13.7138795852661,13.7225141525269,13.7311592102051,13.7398157119751,13.7484827041626,13.7571601867676,13.7658491134644,13.7745494842529,13.783260345459,13.7919826507568,13.8007154464722,13.8094596862793,13.8182153701782,13.8269815444946,13.8357582092285,13.8573484420776,13.8892316818237,13.9212627410889,13.953441619873,13.9857692718506,14.0182466506958,14.0508766174316,14.0836572647095,14.1165924072266,14.1496810913086,14.1829261779785,14.2163276672363,14.2498865127563,14.2836036682129,14.3174810409546,14.3515205383301,14.385721206665,14.4200859069824,14.4546146392822,14.4893093109131,14.5241708755493,14.5592002868652,14.5943994522095,14.6297693252563,14.6653108596802,14.7010259628296,14.7369146347046,14.7802314758301,14.8432521820068,14.9068126678467,14.9709205627441,15.0355815887451,15.1008033752441,15.1665945053101,15.2329607009888,15.2999095916748,15.3674507141113,15.4355897903442,15.5043363571167,15.5736980438232,15.6436834335327,15.7143001556396,17.5822906494141,17.6774921417236,17.8733692169189,18.0321884155273,18.1920585632324,18.3547878265381,18.5204544067383,0,0,0,0,0,0,0,0,0,0,0,0,0,0,0,0,0,0,0,0,0,0,0,0,0,0,0,0,0,0,0,0,0,0,0,0,0,0,0,0,0,0,0,0,0,0,0,0,0,0,0,0,0,0,0,0,0,0,0,0,0,0,0,0,0,0,0,0,0,0,0,0,0,0,0,0,0,0,0,0,0,0,0,0,0,0,0,0,0,0,0,0,0,0,0,0,0,0,0,0,0,0,0
11.602442741394,11.602222442627,11.6020021438599,11.6017818450928,11.6015605926514,11.6013402938843,11.6011199951172,11.6008996963501,11.6006784439087,11.6004581451416,11.6002378463745,11.6000175476074,11.5997972488403,11.5995769500732,11.5993556976318,11.5991353988647,11.5989151000977,11.5986948013306,11.5984745025635,11.5982542037964,11.5980339050293,11.5978136062622,11.5975923538208,11.5973720550537,11.5971517562866,11.5969314575195,11.5967111587524,11.5964908599854,11.5962705612183,11.5960502624512,11.5958299636841,11.595609664917,11.5953893661499,11.5951690673828,11.5949487686157,11.5947284698486,11.5945081710815,11.5942878723145,11.5940675735474,11.5938472747803,11.5936269760132,11.5934066772461,11.593186378479,11.5929670333862,11.5972681045532,11.6047382354736,11.6122188568115,11.6197080612183,11.6272077560425,11.6347160339355,11.6422348022461,11.6642446517944,11.7231569290161,11.7826614379883,11.8427734375,11.9035024642944,11.9648571014404,12.0268468856812,12.0894832611084,12.152774810791,12.2167329788208,12.2813682556152,12.3466901779175,12.4127111434937,12.4794416427612,12.5468940734863,12.5995950698853,12.6090717315674,12.6185617446899,12.6280670166016,12.6375865936279,12.6471195220947,12.6566677093506,12.6662302017212,12.6758069992065,12.6853981018066,12.6950044631958,12.7046241760254,12.714259147644,12.7239093780518,12.7335739135742,12.7432527542114,12.7529458999634,12.7626543045044,12.7723779678345,12.7821159362793,12.7918691635132,12.8016366958618,12.8114194869995,12.8212175369263,12.8310298919678,12.8408575057983,12.850700378418,12.8605585098267,12.8704319000244,12.8803195953369,12.8902235031128,12.9001417160034,12.9100761413574,12.9200248718262,12.9293546676636,12.9338121414185,12.9382724761963,12.9427356719971,12.9472026824951,12.9516716003418,12.9561452865601,12.960620880127,12.9650993347168,12.9695816040039,12.974066734314,12.978554725647,12.9830465316772,12.9903049468994,12.9980516433716,13.0058078765869,13.0135736465454,13.0213479995728,13.0291328430176,13.0369262695312,13.0447282791138,13.0525407791138,13.0603618621826,13.0681934356689,13.0760335922241,13.0838832855225,13.091742515564,13.0996103286743,13.1074886322021,13.1153764724731,13.123272895813,13.1311798095703,13.1390953063965,13.1470212936401,13.1549558639526,13.1629009246826,13.1708555221558,13.1788187026978,13.1867923736572,13.1947755813599,13.2027683258057,13.2107715606689,13.2187833786011,13.2268056869507,13.2348375320435,13.2428789138794,13.2509298324585,13.2589912414551,13.2670621871948,13.2751426696777,13.2832336425781,13.2913341522217,13.2994441986084,13.3075647354126,13.31569480896,13.3238353729248,13.3319854736328,13.340145111084,13.3483152389526,13.3564949035645,13.3646850585938,13.3728857040405,13.3810958862305,13.3893156051636,13.3975467681885,13.4057865142822,13.4140377044678,13.4222984313965,13.4305696487427,13.438850402832,13.4471416473389,13.4554433822632,13.463755607605,13.4720773696899,13.4804105758667,13.4887533187866,13.497106552124,13.5054693222046,13.513843536377,13.5222282409668,13.5306224822998,13.5390272140503,13.5474433898926,13.555869102478,13.564305305481,13.5727529525757,13.5812101364136,13.5896787643433,13.5981569290161,13.6066465377808,13.6151456832886,13.6236562728882,13.6321773529053,13.6407089233398,13.6492519378662,13.6578054428101,13.6663684844971,13.6749439239502,13.6835289001465,13.6921253204346,13.7007322311401,13.7093496322632,13.717978477478,13.7266178131104,13.7352685928345,13.7439298629761,13.7526025772095,13.7612857818604,13.7699794769287,13.7786846160889,13.7874011993408,13.7961282730103,13.8048667907715,13.8136157989502,13.8234701156616,13.8551979064941,13.8870716094971,13.9190921783447,13.9512605667114,13.9835786819458,14.0160465240479,14.0486650466919,14.0814361572266,14.1143608093262,14.1474390029907,14.1806735992432,14.2140636444092,14.2476119995117,14.2813186645508,14.315185546875,14.3492136001587,14.3834037780762,14.4177570343018,14.4522743225098,14.4869585037231,14.5218086242676,14.5568265914917,14.5920143127441,14.6273727416992,14.6629028320312,14.6986055374146,14.7344827651978,14.7705354690552,14.8080930709839,14.8713521957397,14.9351539611816,14.9995059967041,15.0644149780273,15.1298875808716,15.1959323883057,15.2625560760498,15.3297672271729,15.3975715637207,15.4659795761108,15.5349979400635,15.6046342849731,15.674898147583,15.7457981109619,17.7179660797119,17.8904724121094,18.0561904907227,18.2164878845215,18.3796577453613,0,0,0,0,0,0,0,0,0,0,0,0,0,0,0,0,0,0,0,0,0,0,0,0,0,0,0,0,0,0,0,0,0,0,0,0,0,0,0,0,0,0,0,0,0,0,0,0,0,0,0,0,0,0,0,0,0,0,0,0,0,0,0,0,0,0,0,0,0,0,0,0,0,0,0,0,0,0,0,0,0,0,0,0,0,0,0,0,0,0,0,0,0,0,0,0,0,0,0,0,0,0,0
11.6023683547974,11.602147102356,11.6019268035889,11.6017065048218,11.6014862060547,11.6012649536133,11.6010446548462,11.6008243560791,11.600604057312,11.6003837585449,11.6001625061035,11.5999422073364,11.5997219085693,11.5995016098022,11.5992813110352,11.5990610122681,11.5988397598267,11.5986194610596,11.5983991622925,11.5981788635254,11.5979585647583,11.5977382659912,11.5975179672241,11.597297668457,11.5970773696899,11.5968570709229,11.5966358184814,11.5964155197144,11.5961952209473,11.5959749221802,11.5957546234131,11.595534324646,11.5953140258789,11.5950937271118,11.5948734283447,11.5946531295776,11.5944328308105,11.5942125320435,11.5939931869507,11.5937728881836,11.5935525894165,11.5933322906494,11.5931119918823,11.5928916931152,11.5926713943481,11.5943431854248,11.6018104553223,11.6092863082886,11.6167726516724,11.624267578125,11.6317729949951,11.6641788482666,11.7230882644653,11.7825927734375,11.8427038192749,11.903431892395,11.9647855758667,12.0267744064331,12.089409828186,12.1527013778687,12.2166585922241,12.2812919616699,12.3466138839722,12.412633895874,12.4793634414673,12.5468149185181,12.5624895095825,12.5719108581543,12.5813455581665,12.5907936096191,12.6002569198608,12.6097345352173,12.6192255020142,12.6287317276001,12.6382522583008,12.6477861404419,12.6573352813721,12.666898727417,12.6764764785767,12.6860694885254,12.6956758499146,12.7052974700928,12.7149333953857,12.7245836257935,12.7342491149902,12.7439298629761,12.7536239624023,12.7633333206177,12.7730579376221,12.7827968597412,12.7925510406494,12.8023195266724,12.8121042251587,12.8219022750854,12.8317165374756,12.8415451049805,12.8513889312744,12.8612480163574,12.8711223602295,12.8810110092163,12.8909158706665,12.8968210220337,12.901255607605,12.9056930541992,12.910135269165,12.9145784378052,12.9190263748169,12.924633026123,12.9323024749756,12.939980506897,12.9476671218872,12.9553632736206,12.9630689620972,12.9707841873169,12.9785070419312,12.9862403869629,12.9939823150635,13.0017337799072,13.0094947814941,13.0172643661499,13.0250434875488,13.0328321456909,13.0406303405762,13.0484371185303,13.0562534332275,13.0640802383423,13.0719146728516,13.0797595977783,13.0876140594482,13.095477104187,13.1033506393433,13.1112327575684,13.1191253662109,13.1270265579224,13.134937286377,13.142858505249,13.1507883071899,13.158727645874,13.1666774749756,13.174635887146,13.1826047897339,13.1905822753906,13.1985702514648,13.2065677642822,13.2145748138428,13.2225923538208,13.2306184768677,13.238655090332,13.2467012405396,13.2547569274902,13.2628231048584,13.2708988189697,13.2789840698242,13.2870788574219,13.295184135437,13.3032989501953,13.3114242553711,13.31955909729,13.3277044296265,13.3358592987061,13.3440237045288,13.352198600769,13.3603830337524,13.3685779571533,13.3767833709717,13.3849983215332,13.3932228088379,13.4014587402344,13.4097032546997,13.4179592132568,13.4262247085571,13.4345006942749,13.4427871704102,13.4510831832886,13.4593896865845,13.4677066802979,13.4760332107544,13.4843711853027,13.4927186965942,13.5010766983032,13.5094451904297,13.5178241729736,13.5262126922607,13.5346126556396,13.543023109436,13.5514430999756,13.5598745346069,13.5683155059814,13.5767679214478,13.5852298736572,13.5937032699585,13.6021871566772,13.6106815338135,13.6191864013672,13.6277017593384,13.6362276077271,13.6447649002075,13.6533126831055,13.6618709564209,13.6704397201538,13.6790189743042,13.6876096725464,13.6962108612061,13.7048234939575,13.7134466171265,13.7220802307129,13.7307243347168,13.7393808364868,13.748046875,13.756724357605,13.7654132843018,13.774112701416,13.7828226089478,13.7915439605713,13.8002767562866,13.8213300704956,13.853048324585,13.8849115371704,13.9169225692749,13.9490814208984,13.9813890457153,14.0138463973999,14.0464553833008,14.079216003418,14.1121292114258,14.1451978683472,14.1784210205078,14.2118015289307,14.2453384399414,14.279034614563,14.3128910064697,14.3469076156616,14.3810863494873,14.4154291152954,14.4499359130859,14.4846076965332,14.5194463729858,14.5544538497925,14.5896301269531,14.6249761581421,14.6604948043823,14.6961860656738,14.7320518493652,14.7680921554565,14.8043098449707,14.840705871582,14.8995580673218,14.9636030197144,15.0282011032104,15.0933589935303,15.1590843200684,15.2253847122192,15.2922677993774,15.3597402572632,15.4278116226196,15.496488571167,15.5657796859741,15.6356935501099,15.7062387466431,17.8250942230225,17.9076538085938,18.0802574157715,18.2409839630127,0,0,0,0,0,0,0,0,0,0,0,0,0,0,0,0,0,0,0,0,0,0,0,0,0,0,0,0,0,0,0,0,0,0,0,0,0,0,0,0,0,0,0,0,0,0,0,0,0,0,0,0,0,0,0,0,0,0,0,0,0,0,0,0,0,0,0,0,0,0,0,0,0,0,0,0,0,0,0,0,0,0,0,0,0,0,0,0,0,0,0,0,0,0,0,0,0,0,0,0,0,0,0
11.6022930145264,11.6020727157593,11.6018514633179,11.6016311645508,11.6014108657837,11.6011905670166,11.6009693145752,11.6007490158081,11.600528717041,11.6003084182739,11.6000881195068,11.5998668670654,11.5996465682983,11.5994262695312,11.5992059707642,11.5989856719971,11.59876537323,11.5985450744629,11.5983238220215,11.5981035232544,11.5978832244873,11.5976629257202,11.5974426269531,11.597222328186,11.5970020294189,11.5967817306519,11.5965614318848,11.5963411331177,11.5961208343506,11.5959005355835,11.5956802368164,11.5954599380493,11.5952396392822,11.5950193405151,11.594799041748,11.594578742981,11.5943584442139,11.5941381454468,11.5939178466797,11.5936975479126,11.5934772491455,11.5932569503784,11.5930366516113,11.5928163528442,11.5925960540771,11.5923767089844,11.5921564102173,11.5988836288452,11.6063556671143,11.6138381958008,11.6213302612305,11.6641139984131,11.7230195999146,11.7825231552124,11.8426332473755,11.9033603668213,11.964714050293,12.0267028808594,12.089337348938,12.152626991272,12.2165832519531,12.2812166213989,12.3465375900269,12.4125566482544,12.4792861938477,12.5162506103516,12.5256023406982,12.5349674224854,12.5443468093872,12.5537405014038,12.5631475448608,12.5725688934326,12.5820045471191,12.5914545059204,12.6009187698364,12.6103973388672,12.6198902130127,12.6293964385986,12.6389179229736,12.6484537124634,12.6580038070679,12.6675682067871,12.6771469116211,12.6867399215698,12.6963481903076,12.7059707641602,12.7156076431274,12.7252588272095,12.7349252700806,12.7446060180664,12.7543020248413,12.764012336731,12.7737379074097,12.7834787368774,12.7932329177856,12.8030033111572,12.8127880096436,12.8225879669189,12.8324031829834,12.8422327041626,12.8520774841309,12.8600406646729,12.8672151565552,12.8748159408569,12.8824253082275,12.8900442123413,12.8976726531982,12.9053087234497,12.9129552841187,12.9206104278564,12.9282741546631,12.9359474182129,12.9436292648315,12.9513206481934,12.9590215682983,12.9667310714722,12.9744501113892,12.9821786880493,12.9899158477783,12.9976625442505,13.0054178237915,13.01318359375,13.0209579467773,13.0287408828735,13.0365343093872,13.0443363189697,13.0521478652954,13.0599689483643,13.0677995681763,13.0756387710571,13.0834884643555,13.0913467407227,13.099214553833,13.1070928573608,13.1149797439575,13.1228761672974,13.1307821273804,13.1386976242065,13.1466226577759,13.1545572280884,13.162501335144,13.1704549789429,13.1784191131592,13.1863918304443,13.194375038147,13.2023668289185,13.2103691101074,13.2183809280396,13.2264022827148,13.2344341278076,13.2424745559692,13.2505254745483,13.2585859298706,13.2666568756104,13.2747364044189,13.2828273773193,13.2909269332886,13.2990369796753,13.3071565628052,13.3152866363525,13.3234262466431,13.3315753936768,13.3397350311279,13.3479042053223,13.3560838699341,13.3642740249634,13.3724737167358,13.3806829452515,13.3889026641846,13.3971328735352,13.4053726196289,13.4136228561401,13.4218835830688,13.4301538467407,13.4384346008301,13.4467248916626,13.4550266265869,13.4633378982544,13.4716596603394,13.4799919128418,13.4883337020874,13.4966859817505,13.5050497055054,13.5134229660034,13.5218067169189,13.530200958252,13.5386047363281,13.5470199584961,13.5554456710815,13.5638818740845,13.5723276138306,13.5807847976685,13.5892524719238,13.5977306365967,13.606219291687,13.6147184371948,13.6232290267944,13.6317491531372,13.6402807235718,13.6488227844238,13.6573753356934,13.6659383773804,13.6745128631592,13.6830978393555,13.6916933059692,13.7002992630005,13.7089166641235,13.7175445556641,13.7261838912964,13.7348337173462,13.7434949874878,13.7521667480469,13.7608489990234,13.7695426940918,13.7782468795776,13.7876272201538,13.8191909790039,13.8508987426758,13.8827524185181,13.9147539138794,13.9469022750854,13.9791994094849,14.0116472244263,14.0442457199097,14.0769958496094,14.109899520874,14.1429567337036,14.1761703491211,14.2095394134521,14.2430658340454,14.2767515182495,14.3105964660645,14.3446025848389,14.3787708282471,14.4131021499634,14.4475975036621,14.4822578430176,14.5170860290527,14.5520811080933,14.5872459411621,14.6225814819336,14.6580877304077,14.6937675476074,14.7296209335327,14.7656497955322,14.8018560409546,14.8382396697998,14.8748025894165,14.9278717041016,14.9921607971191,15.0570058822632,15.1224145889282,15.1883935928345,15.2549514770508,15.3220949172974,15.3898315429688,15.4581699371338,15.5271186828613,15.5966844558716,15.6668767929077,15.7377042770386,17.9645576477051,18.1043891906738,0,0,0,0,0,0,0,0,0,0,0,0,0,0,0,0,0,0,0,0,0,0,0,0,0,0,0,0,0,0,0,0,0,0,0,0,0,0,0,0,0,0,0,0,0,0,0,0,0,0,0,0,0,0,0,0,0,0,0,0,0,0,0,0,0,0,0,0,0,0,0,0,0,0,0,0,0,0,0,0,0,0,0,0,0,0,0,0,0,0,0,0,0,0,0,0,0,0,0,0,0,0,0
11.6022176742554,11.6019973754883,11.6017770767212,11.6015558242798,11.6013355255127,11.6011152267456,11.6008949279785,11.6006736755371,11.60045337677,11.6002330780029,11.6000127792358,11.5997924804688,11.5995721817017,11.5993509292603,11.5991306304932,11.5989103317261,11.598690032959,11.5984697341919,11.5982494354248,11.5980291366577,11.5978088378906,11.5975875854492,11.5973672866821,11.597146987915,11.5969266891479,11.5967063903809,11.5964860916138,11.5962657928467,11.5960454940796,11.5958251953125,11.5956048965454,11.5953845977783,11.5951642990112,11.5949440002441,11.5947237014771,11.59450340271,11.5942831039429,11.5940628051758,11.5938425064087,11.5936222076416,11.5934019088745,11.5931816101074,11.5929622650146,11.5927419662476,11.5925216674805,11.5923013687134,11.5920810699463,11.5918607711792,11.5959587097168,11.6034269332886,11.6109056472778,11.6640462875366,11.7229509353638,11.7824535369873,11.8425636291504,11.9032897949219,11.9646415710449,12.0266304016113,12.0892639160156,12.1525535583496,12.2165088653564,12.2811412811279,12.3464612960815,12.4124794006348,12.4754524230957,12.4796342849731,12.4889307022095,12.4982414245605,12.5075654983521,12.5169038772583,12.5262565612793,12.5356225967407,12.5450029373169,12.5543975830078,12.5638055801392,12.5732278823853,12.5826644897461,12.5921154022217,12.601580619812,12.6110601425171,12.6205539703369,12.6300611495972,12.6395835876465,12.6491203308105,12.6586713790894,12.6682367324829,12.6778163909912,12.6874113082886,12.6970195770264,12.7066431045532,12.7162809371948,12.7259340286255,12.7356014251709,12.7452831268311,12.7549800872803,12.7646923065186,12.7744178771973,12.7841596603394,12.7939157485962,12.8036861419678,12.8134727478027,12.8232736587524,12.8330888748169,12.8429203033447,12.8527660369873,12.8626270294189,12.8725032806396,12.8823947906494,12.8923015594482,12.9012975692749,12.9089384078979,12.9165887832642,12.9242486953735,12.9319171905518,12.9395942687988,12.9472808837891,12.9549770355225,12.9626817703247,12.9703960418701,12.9781188964844,12.9858512878418,12.9935932159424,13.0013446807861,13.0091047286987,13.0168743133545,13.0246524810791,13.0324411392212,13.0402383804321,13.0480451583862,13.0558614730835,13.0636863708496,13.0715208053589,13.0793657302856,13.0872192382812,13.09508228302,13.102954864502,13.1108369827271,13.1187286376953,13.1266288757324,13.134539604187,13.1424598693848,13.1503896713257,13.1583290100098,13.166277885437,13.1742353439331,13.182204246521,13.1901817321777,13.1981687545776,13.206166267395,13.2141723632812,13.222188949585,13.2302150726318,13.2382507324219,13.2462968826294,13.2543525695801,13.2624177932739,13.2704925537109,13.2785778045654,13.2866725921631,13.2947769165039,13.3028917312622,13.3110160827637,13.3191499710083,13.3272943496704,13.33544921875,13.3436136245728,13.3517875671387,13.3599720001221,13.3681659698486,13.3763704299927,13.3845853805542,13.3928098678589,13.4010448455811,13.4092893600464,13.4175443649292,13.4258098602295,13.4340848922729,13.4423704147339,13.4506664276123,13.4589719772339,13.4672880172729,13.4756145477295,13.4839515686035,13.492299079895,13.5006561279297,13.5090246200562,13.5174026489258,13.5257911682129,13.5341901779175,13.5425996780396,13.5510196685791,13.5594501495361,13.5678911209106,13.5763425827026,13.5848045349121,13.5932769775391,13.6017608642578,13.6102542877197,13.6187591552734,13.6272735595703,13.635799407959,13.6443357467651,13.6528825759888,13.6614398956299,13.6700086593628,13.6785879135132,13.6871776580811,13.6957788467407,13.7043905258179,13.7130126953125,13.7216463088989,13.7302904129028,13.7389450073242,13.7476110458374,13.7562885284424,13.7649765014648,13.7854986190796,13.8170518875122,13.8487501144409,13.88059425354,13.9125852584839,13.9447240829468,13.9770107269287,14.0094480514526,14.0420370101929,14.0747766494751,14.1076698303223,14.1407175064087,14.1739196777344,14.2072782516479,14.2407941818237,14.2744693756104,14.3083028793335,14.3422985076904,14.3764553070068,14.4107751846313,14.4452600479126,14.4799089431763,14.5147256851196,14.5497102737427,14.5848627090454,14.6201868057251,14.6556816101074,14.6913499832153,14.7271909713745,14.7632083892822,14.7994022369385,14.8357744216919,14.8723249435425,14.9090566635132,14.9562931060791,15.020827293396,15.0859212875366,15.1515817642212,15.2178163528442,15.2846326828003,15.3520383834839,15.4200410842896,15.4886484146118,15.5578699111938,15.6277122497559,15.698184967041,18.0975971221924,0,0,0,0,0,0,0,0,0,0,0,0,0,0,0,0,0,0,0,0,0,0,0,0,0,0,0,0,0,0,0,0,0,0,0,0,0,0,0,0,0,0,0,0,0,0,0,0,0,0,0,0,0,0,0,0,0,0,0,0,0,0,0,0,0,0,0,0,0,0,0,0,0,0,0,0,0,0,0,0,0,0,0,0,0,0,0,0,0,0,0,0,0,0,0,0,0,0,0,0,0,0,0
11.6021423339844,11.6019220352173,11.6017017364502,11.6014814376831,11.6012601852417,11.6010398864746,11.6008195877075,11.6005992889404,11.6003789901733,11.6001577377319,11.5999374389648,11.5997171401978,11.5994968414307,11.5992765426636,11.5990562438965,11.5988349914551,11.598614692688,11.5983943939209,11.5981740951538,11.5979537963867,11.5977334976196,11.5975131988525,11.5972929000854,11.5970726013184,11.5968523025513,11.5966310501099,11.5964107513428,11.5961904525757,11.5959701538086,11.5957498550415,11.5955295562744,11.5953092575073,11.5950889587402,11.5948686599731,11.5946483612061,11.594428062439,11.5942077636719,11.5939874649048,11.593768119812,11.5935478210449,11.5933275222778,11.5931072235107,11.5928869247437,11.5926666259766,11.5924463272095,11.5922260284424,11.5920057296753,11.5917863845825,11.5915660858154,11.5930347442627,11.6056623458862,11.6639776229858,11.722882270813,11.7823839187622,11.842493057251,11.9032192230225,11.9645700454712,12.0265579223633,12.0891904830933,12.1524791717529,12.2164344787598,12.2810659408569,12.3463850021362,12.4124031066895,12.4791297912598,12.4865407943726,12.4802742004395,12.4740142822266,12.4709997177124,12.4802837371826,12.4895811080933,12.4988927841187,12.5082178115845,12.517557144165,12.5269107818604,12.5362777709961,12.5456590652466,12.5550546646118,12.5644636154175,12.5738868713379,12.583324432373,12.5927762985229,12.6022424697876,12.611722946167,12.6212177276611,12.63072681427,12.6402492523193,12.6497869491577,12.6593389511108,12.6689052581787,12.6784868240356,12.688081741333,12.6976919174194,12.7073163986206,12.7169551849365,12.7266092300415,12.7362775802612,12.7459602355957,12.7556581497192,12.7653703689575,12.7750978469849,12.784839630127,12.7945966720581,12.8043689727783,12.8141555786133,12.8239574432373,12.8337736129761,12.8436059951782,12.8534526824951,12.8633146286011,12.8731918334961,12.8830833435059,12.892991065979,12.9029140472412,12.9128522872925,12.9228057861328,12.9327745437622,12.9427585601807,12.9509344100952,12.9586343765259,12.9663438796997,12.9740619659424,12.9817905426025,12.9895267486572,12.9972724914551,13.0050287246704,13.0127925872803,13.0205669403076,13.0283498764038,13.0361423492432,13.0439443588257,13.0517549514771,13.0595760345459,13.0674057006836,13.0752449035645,13.0830936431885,13.0909519195557,13.098819732666,13.1066961288452,13.1145830154419,13.1224794387817,13.1303844451904,13.1382999420166,13.1462240219116,13.1541585922241,13.1621017456055,13.1700553894043,13.1780185699463,13.1859912872314,13.1939735412598,13.2019653320312,13.2099666595459,13.217978477478,13.225998878479,13.2340297698975,13.2420701980591,13.2501211166382,13.2581806182861,13.2662506103516,13.2743310928345,13.2824201583862,13.2905197143555,13.2986288070679,13.3067483901978,13.3148775100708,13.3230171203613,13.3311653137207,13.3393249511719,13.3474941253662,13.3556728363037,13.3638620376587,13.3720607757568,13.3802700042725,13.3884897232056,13.3967189788818,13.4049587249756,13.4132080078125,13.4214677810669,13.4297380447388,13.4380178451538,13.4463081359863,13.4546089172363,13.4629201889038,13.4712409973145,13.4795722961426,13.4879140853882,13.4962663650513,13.5046291351318,13.5130014419556,13.5213851928711,13.5297784805298,13.538182258606,13.5465974807739,13.5550222396851,13.5634574890137,13.5719032287598,13.5803604125977,13.5888271331787,13.5973043441772,13.6057929992676,13.6142911911011,13.6228008270264,13.6313209533691,13.6398515701294,13.6483926773071,13.6569452285767,13.6655082702637,13.6740818023682,13.6826658248901,13.6912612915039,13.6998672485352,13.7084836959839,13.7171115875244,13.7257499694824,13.7343988418579,13.7430591583252,13.7519702911377,13.7833709716797,13.8149137496948,13.8466024398804,13.8784370422363,13.9104175567627,13.9425458908081,13.9748229980469,14.0072507858276,14.0398283004761,14.0725584030151,14.1054410934448,14.1384773254395,14.171669960022,14.2050180435181,14.2385234832764,14.2721872329712,14.3060102462769,14.339994430542,14.3741407394409,14.4084501266479,14.4429225921631,14.4775609970093,14.5123662948608,14.5473394393921,14.5824813842773,14.6177930831909,14.6532764434814,14.6889324188232,14.7247629165649,14.7607679367065,14.7969493865967,14.833309173584,14.8698482513428,14.906566619873,14.9434680938721,14.9848222732544,15.0496044158936,15.1149482727051,15.1808624267578,15.247353553772,15.3144302368164,15.3820991516113,15.4503688812256,15.519248008728,15.5887432098389,15.6588640213013,15.7296180725098,0,0,0,0,0,0,0,0,0,0,0,0,0,0,0,0,0,0,0,0,0,0,0,0,0,0,0,0,0,0,0,0,0,0,0,0,0,0,0,0,0,0,0,0,0,0,0,0,0,0,0,0,0,0,0,0,0,0,0,0,0,0,0,0,0,0,0,0,0,0,0,0,0,0,0,0,0,0,0,0,0,0,0,0,0,0,0,0,0,0,0,0,0,0,0,0,0,0,0,0,0,0
11.6020679473877,11.6018466949463,11.6016263961792,11.6014060974121,11.601185798645,11.6009645462036,11.6007442474365,11.6005239486694,11.6003036499023,11.6000833511353,11.5998620986938,11.5996417999268,11.5994215011597,11.5992012023926,11.5989809036255,11.5987606048584,11.5985403060913,11.5983190536499,11.5980987548828,11.5978784561157,11.5976581573486,11.5974378585815,11.5972175598145,11.5969972610474,11.5967769622803,11.5965566635132,11.5963363647461,11.596116065979,11.5958957672119,11.5956754684448,11.5954551696777,11.5952348709106,11.5950145721436,11.5947942733765,11.5945739746094,11.5943536758423,11.5941333770752,11.5939130783081,11.593692779541,11.5934724807739,11.5932521820068,11.5930318832397,11.5928115844727,11.5925912857056,11.5923709869385,11.5921516418457,11.5919313430786,11.5917110443115,11.5914907455444,11.5912704467773,11.6055955886841,11.6639099121094,11.7228136062622,11.7823143005371,11.8424234390259,11.9031476974487,11.9644985198975,12.0264854431152,12.0891180038452,12.1524057388306,12.2163600921631,12.2809906005859,12.3463087081909,12.4123258590698,12.4790525436401,12.5039329528809,12.4976491928101,12.4913711547852,12.4850997924805,12.478835105896,12.4531230926514,12.4623794555664,12.4716491699219,12.4809331893921,12.4902305603027,12.4995412826538,12.5088672637939,12.5182075500488,12.5275611877441,12.5369291305542,12.546311378479,12.5557069778442,12.5651178359985,12.5745420455933,12.5839805603027,12.593433380127,12.6028995513916,12.6123809814453,12.6218767166138,12.6313858032227,12.6409101486206,12.6504487991333,12.6600017547607,12.6695690155029,12.6791505813599,12.6887464523315,12.6983575820923,12.7079830169678,12.717622756958,12.727276802063,12.736946105957,12.7466306686401,12.7563285827637,12.7660427093506,12.7757701873779,12.7855138778687,12.7952718734741,12.8050441741943,12.8148326873779,12.8246355056763,12.8344526290894,12.8442859649658,12.854133605957,12.8639965057373,12.8738746643066,12.883768081665,12.8936767578125,12.903600692749,12.9135398864746,12.9234943389893,12.933464050293,12.9434490203857,12.9534492492676,12.9634656906128,12.9734973907471,12.9835443496704,12.9932041168213,13.0009546279907,13.0087146759033,13.0164833068848,13.0242614746094,13.0320491790771,13.0398464202881,13.0476522445679,13.0554685592651,13.0632934570312,13.0711269378662,13.0789709091187,13.0868244171143,13.094687461853,13.1025590896606,13.1104402542114,13.1183319091797,13.1262321472168,13.1341419219971,13.1420621871948,13.1499910354614,13.1579294204712,13.1658782958984,13.1738357543945,13.1818037033081,13.1897802352905,13.1977672576904,13.2057638168335,13.2137699127197,13.2217864990234,13.229811668396,13.237847328186,13.2458925247192,13.2539472579956,13.2620124816895,13.2700862884521,13.2781705856323,13.28626537323,13.2943696975708,13.3024835586548,13.3106079101562,13.3187417984009,13.3268852233887,13.3350391387939,13.3432025909424,13.3513765335083,13.3595600128174,13.3677539825439,13.375958442688,13.3841724395752,13.3923959732056,13.4006309509277,13.4088745117188,13.4171295166016,13.4253940582275,13.433669090271,13.4419536590576,13.4502487182617,13.4585542678833,13.4668703079224,13.4751968383789,13.4835329055786,13.4918794631958,13.5002365112305,13.5086040496826,13.5169811248779,13.525369644165,13.5337686538696,13.5421772003174,13.5505971908569,13.5590267181396,13.5674667358398,13.5759181976318,13.584379196167,13.5928516387939,13.6013345718384,13.609827041626,13.6183309555054,13.6268453598022,13.6353702545166,13.6439065933228,13.6524534225464,13.6610097885132,13.6695775985718,13.6781568527222,13.68674659729,13.6953468322754,13.7039575576782,13.7125797271729,13.721212387085,13.7298555374146,13.7498531341553,13.7812433242798,13.8127765655518,13.8444557189941,13.8762798309326,13.9082508087158,13.9403686523438,13.9726362228394,14.0050535202026,14.0376205444336,14.0703401565552,14.1032123565674,14.1362390518188,14.1694202423096,14.2027578353882,14.236252784729,14.2699060440063,14.3037185668945,14.3376922607422,14.3718271255493,14.4061250686646,14.4405870437622,14.4752140045166,14.5100078582764,14.5449695587158,14.5801000595093,14.6154003143311,14.6508722305298,14.6865158081055,14.7223339080811,14.7583274841309,14.7944974899292,14.8308448791504,14.8673715591431,14.9040784835815,14.9409675598145,14.9780387878418,15.0152950286865,15.0784912109375,15.1440868377686,15.2102556228638,15.2770051956177,15.3443441390991,15.412278175354,15.4808168411255,15.5499677658081,15.6197395324707,15.6901397705078,0,0,0,0,0,0,0,0,0,0,0,0,0,0,0,0,0,0,0,0,0,0,0,0,0,0,0,0,0,0,0,0,0,0,0,0,0,0,0,0,0,0,0,0,0,0,0,0,0,0,0,0,0,0,0,0,0,0,0,0,0,0,0,0,0,0,0,0,0,0,0,0,0,0,0,0,0,0,0,0,0,0,0,0,0,0,0,0,0,0,0,0,0,0,0,0,0,0,0,0,0
11.6019926071167,11.6017723083496,11.6015510559082,11.6013307571411,11.601110458374,11.6008901596069,11.6006689071655,11.6004486083984,11.6002283096313,11.6000080108643,11.5997877120972,11.5995674133301,11.5993461608887,11.5991258621216,11.5989055633545,11.5986852645874,11.5984649658203,11.5982446670532,11.5980243682861,11.5978031158447,11.5975828170776,11.5973625183105,11.5971422195435,11.5969219207764,11.5967016220093,11.5964813232422,11.5962610244751,11.596040725708,11.5958204269409,11.5956001281738,11.5953798294067,11.5951595306396,11.5949392318726,11.5947189331055,11.5944986343384,11.5942783355713,11.5940580368042,11.5938377380371,11.59361743927,11.5933971405029,11.5931768417358,11.5929565429688,11.592737197876,11.5925168991089,11.5922966003418,11.5920763015747,11.5918560028076,11.5916357040405,11.5914154052734,11.5911960601807,11.6055278778076,11.6638422012329,11.7227439880371,11.782244682312,11.8423528671265,11.9030771255493,11.9644269943237,12.0264129638672,12.0890445709229,12.1523313522339,12.2162847518921,12.2809152603149,12.3462324142456,12.4122486114502,12.4789743423462,12.5213737487793,12.5150718688965,12.5087766647339,12.5024881362915,12.496205329895,12.4168834686279,12.4260864257812,12.4353017807007,12.4445314407349,12.4537754058838,12.4630327224731,12.4723033905029,12.4815874099731,12.4908866882324,12.5001983642578,12.5095252990723,12.5188655853271,12.5282192230225,12.5375871658325,12.5469694137573,12.5563659667969,12.5657758712769,12.5752000808716,12.5846385955811,12.5940914154053,12.6035585403442,12.6130399703979,12.6225357055664,12.6320447921753,12.6415691375732,12.6511087417603,12.660662651062,12.6702308654785,12.6798133850098,12.6894102096558,12.6990222930908,12.7086486816406,12.7182893753052,12.7279453277588,12.7376155853271,12.7473001480103,12.7569999694824,12.7667140960693,12.7764434814453,12.786187171936,12.7959470748901,12.8057203292847,12.8155097961426,12.8253135681152,12.8351316452026,12.8449659347534,12.8548145294189,12.8646793365479,12.8745584487915,12.8844528198242,12.894362449646,12.9042873382568,12.9142274856567,12.9241828918457,12.9341535568237,12.9441394805908,12.9541416168213,12.9641590118408,12.9741916656494,12.9842395782471,12.9943027496338,13.0043821334839,13.0144777297974,13.0245885848999,13.0347146987915,13.0435523986816,13.051362991333,13.0591831207275,13.0670118331909,13.0748510360718,13.0826997756958,13.0905570983887,13.0984239578247,13.1063003540039,13.1141862869263,13.1220817565918,13.1299877166748,13.1379022598267,13.1458263397217,13.1537599563599,13.1617031097412,13.1696557998657,13.1776180267334,13.1855907440186,13.1935720443726,13.201563835144,13.2095651626587,13.2175760269165,13.2255964279175,13.2336263656616,13.2416667938232,13.2497158050537,13.257776260376,13.2658452987671,13.2739248275757,13.2820138931274,13.2901124954224,13.2982215881348,13.3063402175903,13.3144693374634,13.3226079940796,13.330756187439,13.3389148712158,13.3470830917358,13.3552618026733,13.363450050354,13.3716487884521,13.3798580169678,13.3880767822266,13.3963050842285,13.4045438766479,13.4127931594849,13.4210529327393,13.4293222427368,13.4376020431519,13.4458913803101,13.4541921615601,13.4625024795532,13.4708232879639,13.4791536331177,13.4874954223633,13.4958467483521,13.5042085647583,13.512580871582,13.5209636688232,13.5293569564819,13.5377597808838,13.5461740493774,13.5545988082886,13.5630331039429,13.571478843689,13.5799350738525,13.5884017944336,13.5968780517578,13.6053657531738,13.6138639450073,13.6223735809326,13.6308927536011,13.639422416687,13.6479635238647,13.65651512146,13.6650772094727,13.6736507415771,13.6822347640991,13.6908292770386,13.6994342803955,13.7080507278442,13.7166776657104,13.7477350234985,13.7791156768799,13.810640335083,13.8423089981079,13.8741235733032,13.9060840606689,13.9381923675537,13.9704494476318,14.0028562545776,14.0354137420654,14.0681228637695,14.1009855270386,14.1340007781982,14.1671724319458,14.2004985809326,14.233983039856,14.2676258087158,14.3014268875122,14.3353900909424,14.3695135116577,14.4038009643555,14.4382514953613,14.4728679656982,14.5076503753662,14.5425996780396,14.5777187347412,14.6130075454712,14.6484680175781,14.684100151062,14.7199068069458,14.7558889389038,14.792046546936,14.8283815383911,14.8648958206177,14.9015913009644,14.9384670257568,14.9755268096924,15.012770652771,15.050199508667,15.1074895858765,15.1733379364014,15.2397632598877,15.30677318573,15.3743743896484,15.4425754547119,15.5113849639893,15.5808095932007,15.6508588790894,0,0,0,0,0,0,0,0,0,0,0,0,0,0,0,0,0,0,0,0,0,0,0,0,0,0,0,0,0,0,0,0,0,0,0,0,0,0,0,0,0,0,0,0,0,0,0,0,0,0,0,0,0,0,0,0,0,0,0,0,0,0,0,0,0,0,0,0,0,0,0,0,0,0,0,0,0,0,0,0,0,0,0,0,0,0,0,0,0,0,0,0,0,0,0,0,0,0,0,0
11.6019172668457,11.6016969680786,11.6014766693115,11.6012554168701,11.601035118103,11.6008148193359,11.6005945205688,11.6003742218018,11.6001529693604,11.5999326705933,11.5997123718262,11.5994920730591,11.599271774292,11.5990505218506,11.5988302230835,11.5986099243164,11.5983896255493,11.5981693267822,11.5979490280151,11.597728729248,11.597508430481,11.5972881317139,11.5970678329468,11.5968465805054,11.5966262817383,11.5964059829712,11.5961856842041,11.595965385437,11.5957450866699,11.5955247879028,11.5953044891357,11.5950841903687,11.5948638916016,11.5946435928345,11.5944232940674,11.5942029953003,11.5939826965332,11.5937633514404,11.5935430526733,11.5933227539062,11.5931024551392,11.5928821563721,11.592661857605,11.5924415588379,11.5922212600708,11.5920009613037,11.5917816162109,11.5915613174438,11.5913410186768,11.5911207199097,11.6054601669312,11.6637735366821,11.7226753234863,11.7821750640869,11.8422822952271,11.9030055999756,11.96435546875,12.0263404846191,12.0889711380005,12.1522579193115,12.2162103652954,12.2808389663696,12.3461561203003,12.4121713638306,12.4788961410522,12.526834487915,12.5310182571411,12.5262308120728,12.5199241638184,12.3717193603516,12.3808546066284,12.39000415802,12.3991661071777,12.4083423614502,12.4175319671631,12.4267358779907,12.4359521865845,12.445182800293,12.4544277191162,12.4636850357056,12.472957611084,12.4822425842285,12.4915418624878,12.5008554458618,12.5101833343506,12.5195236206055,12.5288791656494,12.5382480621338,12.5476312637329,12.5570287704468,12.5664396286011,12.5758657455444,12.5853052139282,12.5947589874268,12.60422706604,12.6137084960938,12.6232051849365,12.632716178894,12.6422414779663,12.6517810821533,12.6613349914551,12.6709032058716,12.6804857254028,12.6900835037231,12.6996946334839,12.7093210220337,12.7189626693726,12.7286176681519,12.7382888793945,12.7479734420776,12.7576732635498,12.767388343811,12.777117729187,12.7868614196777,12.7966213226318,12.806396484375,12.8161869049072,12.8259916305542,12.8358116149902,12.845645904541,12.8554964065552,12.8653612136841,12.8752412796021,12.8851366043091,12.8950481414795,12.9049739837646,12.9149150848389,12.9248714447021,12.9348430633545,12.9448308944702,12.9548330307007,12.9648513793945,12.9748849868774,12.9849348068237,12.9949998855591,13.0050802230835,13.015175819397,13.0252876281738,13.0354156494141,13.0455589294434,13.0557174682617,13.0658922195435,13.0760831832886,13.0862903594971,13.0942916870117,13.1021633148193,13.1100444793701,13.1179351806641,13.1258354187012,13.1337442398071,13.1416635513306,13.1495923995972,13.1575307846069,13.1654787063599,13.173436164856,13.1814031600952,13.1893796920776,13.1973657608032,13.2053623199463,13.2133674621582,13.2213830947876,13.2294082641602,13.2374429702759,13.2454881668091,13.2535429000854,13.261607170105,13.2696809768677,13.2777643203735,13.2858581542969,13.2939624786377,13.3020753860474,13.3101987838745,13.3183326721191,13.3264760971069,13.3346290588379,13.3427925109863,13.3509654998779,13.359148979187,13.3673429489136,13.375545501709,13.3837594985962,13.3919830322266,13.4002170562744,13.4084606170654,13.4167146682739,13.4249782562256,13.433253288269,13.4415378570557,13.4498319625854,13.4581365585327,13.4664525985718,13.474778175354,13.4831132888794,13.4914598464966,13.4998159408569,13.5081834793091,13.5165605545044,13.5249481201172,13.5333461761475,13.5417547225952,13.5501737594604,13.5586032867432,13.567042350769,13.5754928588867,13.5839538574219,13.5924253463745,13.6009082794189,13.6094007492065,13.6179037094116,13.6264181137085,13.6349420547485,13.6434774398804,13.6520233154297,13.6605796813965,13.6691474914551,13.6777257919312,13.6863145828247,13.6949138641357,13.7143907546997,13.7456188201904,13.7769899368286,13.8085041046143,13.840163230896,13.8719673156738,13.9039182662964,13.936017036438,13.9682636260986,14.0006608963013,14.0332078933716,14.0659065246582,14.0987586975098,14.1317644119263,14.164924621582,14.1982412338257,14.2317142486572,14.2653455734253,14.2991371154785,14.3330879211426,14.3672018051147,14.4014768600464,14.4359169006348,14.4705219268799,14.5052928924561,14.5402317047119,14.5753393173218,14.61061668396,14.6460647583008,14.6816864013672,14.7174806594849,14.7534503936768,14.7895956039429,14.8259191513062,14.8624219894409,14.8991041183472,14.9359683990479,14.973014831543,15.0102462768555,15.0476627349854,15.0852661132812,15.1365995407104,15.2027025222778,15.2693862915039,15.3366565704346,15.404522895813,15.4729928970337,15.5420732498169,15.6117744445801,15.6821022033691,0,0,0,0,0,0,0,0,0,0,0,0,0,0,0,0,0,0,0,0,0,0,0,0,0,0,0,0,0,0,0,0,0,0,0,0,0,0,0,0,0,0,0,0,0,0,0,0,0,0,0,0,0,0,0,0,0,0,0,0,0,0,0,0,0,0,0,0,0,0,0,0,0,0,0,0,0,0,0,0,0,0,0,0,0,0,0,0,0,0,0,0,0,0,0,0,0,0
