12.2565603256226,12.2657556533813,12.2749652862549,12.2841882705688,12.2934255599976,12.302677154541,12.3119421005249,12.3212213516235,12.3305139541626,12.3398208618164,12.349142074585,12.3584775924683,12.367826461792,12.3771896362305,12.3865671157837,12.395959854126,12.4053659439087,12.4147863388062,12.4242210388184,12.4336700439453,12.443133354187,12.4526109695435,12.4621028900146,12.4716100692749,12.4811315536499,12.4906673431396,12.5002174377441,12.5097827911377,12.519362449646,12.5289573669434,12.5385656356812,12.5481901168823,12.5578289031982,12.5674819946289,12.5771503448486,12.5868339538574,12.596531867981,12.6062450408936,12.6159725189209,12.6257162094116,12.6354742050171,12.6452474594116,12.6550359725952,12.6648397445679,12.6746578216553,12.6844921112061,12.6943416595459,12.7042055130005,12.7140855789185,12.7239809036255,12.7338914871216,12.7438182830811,12.7537593841553,12.7637166976929,12.7736892700195,12.7836780548096,12.7936820983887,12.8037014007568,12.8137369155884,12.823787689209,12.833854675293,12.843936920166,12.8540363311768,12.8641500473022,12.8742809295654,12.8844270706177,12.8939247131348,12.8997411727905,12.9055624008179,12.9113883972168,12.9172210693359,12.9230575561523,12.9288997650146,12.9347476959229,12.9406003952026,12.9464588165283,12.9523220062256,13.0104732513428,13.0758152008057,13.0917949676514,13.107813835144,13.1238718032837,13.1399688720703,13.1561059951782,13.1722822189331,13.1884994506836,13.2047557830811,13.2210521697998,13.2373895645142,13.2537670135498,13.2701845169067,13.2866430282593,13.3031425476074,13.3196830749512,13.3362655639648,13.3528881072998,13.3695526123047,13.3862590789795,13.4030075073242,13.4197969436646,13.4366292953491,13.4535036087036,13.4704208374023,13.487380027771,13.5043821334839,13.521427154541,13.5385150909424,13.5556468963623,13.5728216171265,13.5900392532349,13.6073017120361,13.624608039856,13.6419582366943,13.6593523025513,13.6767911911011,13.6942749023438,13.711802482605,13.7293758392334,13.7469940185547,13.7646579742432,13.7823667526245,13.8001203536987,13.8179216384888,13.8357677459717,13.8536596298218,13.8715982437134,13.8895835876465,13.9076166152954,13.9256954193115,13.9438209533691,13.9619941711426,13.9802150726318,13.9984827041626,14.0167989730835,14.0351629257202,14.0535755157471,14.0720357894897,14.0905447006226,14.1091032028198,14.1277103424072,14.1463661193848,14.1650714874268,14.1838254928589,14.2026309967041,14.2214851379395,14.2403898239136,14.2632369995117,14.2908620834351,14.3185939788818,14.3464326858521,14.3743810653687,14.4024381637573,14.4306049346924,14.4588823318481,14.4872703552246,14.5157709121704,14.5443830490112,14.5731086730957,14.6019477844238,14.6309013366699,14.659969329834,14.6891536712646,14.7184543609619,14.7478723526001,14.7774076461792,14.8070621490479,14.8368349075317,14.8667287826538,14.8967428207397,14.9268779754639,14.952615737915,14.97727394104,15.0020141601562,15.0268363952637,15.0517416000366,15.0767278671265,15.1017980575562,15.1269521713257,15.1521902084351,15.1775121688843,15.2029190063477,15.2284107208252,15.2539882659912,15.27965259552,15.3054027557373,15.3312397003174,15.3571643829346,15.3831768035889,15.4072351455688,15.418755531311,15.4302940368652,15.4418497085571,15.4534225463867,15.465012550354,15.476619720459,15.488245010376,15.4998874664307,15.511547088623,15.5232248306274,15.5349197387695,15.5466327667236,15.5583629608154,15.5701112747192,15.5818767547607,15.5936603546143,15.6054620742798,15.617280960083,15.6291189193726,15.6409740447998,15.6528472900391,15.6647386550903,15.6766481399536,15.6885747909546,15.7005205154419,15.7124843597412,15.7244672775269,15.7364673614502,15.7484855651855,15.7605228424072,15.7725782394409,15.7873783111572,15.840931892395,15.894850730896,15.9491376876831,16.0037975311279,16.0588321685791,16.1142482757568,16.1700458526611,16.3097915649414,16.3096809387207,16.3095741271973,16.3094615936279,16.3093490600586,16.3092422485352,16.3091316223145,16.3090209960938,16.3089084625244,16.308801651001,16.3086891174316,16.3085803985596,16.3084697723389,16.3083610534668,16.3082485198975,16.3081378936768,16.3080291748047,16.307918548584,16.3078060150146,16.3076992034912,16.3075866699219,16.3074779510498,16.3073711395264,16.3072566986084,16.3071460723877,16.3070373535156,16.3069286346436,16.3068161010742,16.3067054748535,16.3065967559814,16.3064880371094,16.3063735961914,16.3062629699707,16.3061561584473,16.3060455322266,16.3059349060059,16.3058242797852,16.3057136535645,16.3056049346924,16.3054962158203,16.3053817749023,16.3052730560303,16.3051624298096,16.3050556182861,16.3049430847168,16.3048305511475,16.304723739624,16.3046131134033,16.304500579834,16.3043937683105,16.3042812347412,16.3041725158691,16.3040599822998,16.3039531707764,16.303840637207,16.303731918335,16.3036193847656,16.3035144805908,16.3034000396729,16.3032894134521,16.3031787872314,16.303071975708,16.3029594421387,16.3028526306152,16.3027381896973,16.3026313781738,16.3025188446045,16.3024101257324,16.3022975921631,16.3021907806396,16.3020801544189,16.3019695281982,16.3018550872803,16.3017520904541,16.3016395568848,16.3015289306641,16.3014163970947,16.3013095855713,16.301197052002,16.3010883331299,16.3009757995605,16.3008670806885,16.3007583618164,16.3006477355957,16.300537109375,16.3004264831543,16.3003158569336,16.3002090454102,16.3000965118408,16.2999858856201,16.2998790740967,16.299768447876,16.2996559143066,16.2995452880859,16.2994365692139,16.2993240356445,16.2992153167725,16.2991065979004,16.2989978790283,16.2988834381104,16.2987747192383,16.2986679077148,16.2985572814941,16.2984447479248,16.2983360290527,16.2982234954834,16.29811668396,16.2980060577393,16.2978954315186,16.2977828979492,16.2976722717285,15.1498994827271,15.0943670272827,15.0392942428589,14.9846239089966,14.9303493499756,14.8764667510986,14.8229722976685,14.7698602676392,14.7171277999878,14.6647701263428,14.6127853393555,14.5611667633057,14.5099124908447,14.4590177536011,14.4084777832031,14.3582906723022,14.3084516525269,14.258957862854,14.2098054885864,14.1609897613525,14.0466165542603,13.9986877441406,13.9510850906372,0,0,0,0
12.2254323959351,12.2345809936523,12.2437438964844,12.2529201507568,12.262110710144,12.2713146209717,12.2805318832397,12.2897644042969,12.2990093231201,12.3082695007324,12.3175420761108,12.3268299102783,12.3361310958862,12.3454465866089,12.3547763824463,12.3641204833984,12.373477935791,12.3828496932983,12.3922367095947,12.4016370773315,12.4110517501831,12.4204807281494,12.4299240112305,12.4393815994263,12.4488534927368,12.4583406448364,12.4678411483765,12.4773569107056,12.4868869781494,12.496431350708,12.5059909820557,12.5155649185181,12.5251531600952,12.5347566604614,12.5443744659424,12.5540075302124,12.5636548995972,12.573317527771,12.5829944610596,12.5926866531372,12.6023941040039,12.6121168136597,12.6218538284302,12.6316061019897,12.6413726806641,12.6511554718018,12.6609525680542,12.67076587677,12.6805934906006,12.6904363632202,12.7002954483032,12.710168838501,12.7200584411621,12.7299633026123,12.7398834228516,12.7498188018799,12.7597694396973,12.769736289978,12.7797183990479,12.7897157669067,12.799729347229,12.8097581863403,12.819803237915,12.8298635482788,12.839940071106,12.8500328063965,12.8601408004761,12.870265007019,12.8791255950928,12.8849287033081,12.890736579895,12.8965501785278,12.9023685455322,12.9081916809082,12.9140205383301,12.9198551177979,12.9256944656372,12.9315395355225,12.9373893737793,12.943244934082,12.9619588851929,13.0709648132324,13.0927028656006,13.1087236404419,13.1247844696045,13.1408843994141,13.1570234298706,13.1732025146484,13.1894216537476,13.2056798934937,13.2219791412354,13.2383184432983,13.2546977996826,13.2711181640625,13.287579536438,13.3040809631348,13.3206243515015,13.3372077941895,13.3538331985474,13.3705005645752,13.3872089385986,13.403959274292,13.4207515716553,13.4375867843628,13.4544630050659,13.4713821411133,13.4883441925049,13.5053491592407,13.5223960876465,13.5394868850708,13.5566205978394,13.5737981796265,13.5910186767578,13.608283996582,13.6255922317505,13.6429443359375,13.6603412628174,13.6777830123901,13.6952686309814,13.7128000259399,13.730375289917,13.7479963302612,13.7656621932983,13.7833738327026,13.8011302947998,13.8189334869385,13.8367824554443,13.8546772003174,13.8726186752319,13.890606880188,13.9086418151855,13.9267234802246,13.9448518753052,13.9630270004272,13.9812507629395,13.9995222091675,14.017840385437,14.0362071990967,14.0546226501465,14.0730857849121,14.0915975570679,14.1101579666138,14.1287679672241,14.1474266052246,14.1661348342896,14.1848926544189,14.2037000656128,14.2241315841675,14.2516050338745,14.2791843414307,14.3068704605103,14.3346643447876,14.362566947937,14.3905782699585,14.4186983108521,14.4469289779663,14.4752702713013,14.5037231445312,14.5322885513306,14.5609655380249,14.5897569656372,14.6186618804932,14.6476812362671,14.6768169403076,14.7060680389404,14.7354364395142,14.7649221420288,14.7945261001587,14.8242492675781,14.8540916442871,14.8822908401489,14.9067182540894,14.9312257766724,14.9558134078979,14.9804830551147,15.0052337646484,15.0300674438477,15.0549821853638,15.0799798965454,15.1050615310669,15.1302261352539,15.1554746627808,15.1808071136475,15.2062253952026,15.231728553772,15.2573175430298,15.2829923629761,15.3087539672852,15.334602355957,15.360538482666,15.3865623474121,15.4011640548706,15.4126758575439,15.424204826355,15.4357509613037,15.4473152160645,15.4588956832886,15.4704942703247,15.4821100234985,15.4937429428101,15.5053939819336,15.5170621871948,15.5287475585938,15.5404510498047,15.5521726608276,15.5639114379883,15.5756673812866,15.5874423980713,15.5992336273193,15.6110439300537,15.6228713989258,15.6347179412842,15.6465816497803,15.6584634780884,15.6703624725342,15.6822805404663,15.6942167282104,15.7061710357666,15.7181434631348,15.7301340103149,15.7421436309814,15.7541704177856,15.7662162780762,15.778281211853,15.7903633117676,15.8024644851685,15.8352108001709,15.8890914916992,15.943338394165,15.9979581832886,16.0529537200928,16.1083278656006,16.1808414459229,16.1807308197021,16.1806259155273,16.180513381958,16.1804046630859,16.1802959442139,16.1801891326904,16.1800804138184,16.1799716949463,16.1798610687256,16.1797561645508,16.1796455383301,16.1795387268066,16.1794300079346,16.1793212890625,16.1792125701904,16.179105758667,16.1789932250977,16.1788883209229,16.1787776947021,16.1786689758301,16.178560256958,16.1784515380859,16.1783447265625,16.1782379150391,16.1781253814697,16.1780223846436,16.1779098510742,16.1778011322021,16.1776943206787,16.1775856018066,16.1774768829346,16.1773681640625,16.1772594451904,16.177152633667,16.1770439147949,16.1769351959229,16.1768264770508,16.1767196655273,16.1766109466553,16.1765041351318,16.1763916015625,16.1762828826904,16.176176071167,16.1760673522949,16.1759586334229,16.1758499145508,16.1757431030273,16.1756324768066,16.1755237579346,16.1754169464111,16.1753082275391,16.175199508667,16.1750926971436,16.1749820709229,16.174877166748,16.1747646331787,16.1746578216553,16.1745491027832,16.1744403839111,16.1743335723877,16.174222946167,16.1741142272949,16.1740074157715,16.1738986968994,16.173791885376,16.1736793518066,16.1735763549805,16.1734638214111,16.1733551025391,16.1732482910156,16.1731395721436,16.1730308532715,16.1729221343994,16.172815322876,16.1727066040039,16.1725978851318,16.1724910736084,16.1723785400391,16.1722736358643,16.1721649169922,16.1720561981201,16.171947479248,16.171838760376,16.1717319488525,16.1716213226318,16.1715126037598,16.1714057922363,16.1712989807129,16.1711902618408,16.1710777282715,16.1709747314453,16.170862197876,16.1707553863525,16.1706485748291,16.170539855957,16.170431137085,16.1703224182129,16.1702136993408,16.1701068878174,16.1699981689453,16.1698875427246,16.1697788238525,16.1696701049805,16.169563293457,16.1694564819336,16.1693439483643,15.1499996185303,15.0944385528564,15.0393409729004,14.9846706390381,14.9303960800171,14.8765125274658,14.8230171203613,14.769905090332,14.7171726226807,14.6648149490356,14.6128282546997,14.5612096786499,14.5099544525146,14.4590587615967,14.408519744873,14.3583316802979,14.3084926605225,14.2589979171753,14.2098455429077,14.1610298156738,14.046669960022,13.9987411499023,13.9511375427246,13.9038562774658,13.8568954467773,13.8102502822876,13.7639179229736
12.1944618225098,12.2035646438599,12.2126808166504,12.2218103408813,12.2309541702271,12.2401113510132,12.2492828369141,12.2584676742554,12.2676658630371,12.2768783569336,12.2861042022705,12.2953443527222,12.3045988082886,12.3138666152954,12.3231477737427,12.332444190979,12.3417539596558,12.3510780334473,12.3604164123535,12.3697681427002,12.3791351318359,12.3885154724121,12.397910118103,12.4073190689087,12.4167423248291,12.4261798858643,12.4356327056885,12.4450988769531,12.4545793533325,12.464075088501,12.4735851287842,12.4831094741821,12.4926481246948,12.5022010803223,12.5117692947388,12.52135181427,12.5309495925903,12.5405616760254,12.5501890182495,12.5598306655884,12.5694875717163,12.579158782959,12.5888452529907,12.5985460281372,12.6082620620728,12.6179933547974,12.627739906311,12.6375007629395,12.6472778320312,12.6570692062378,12.6668758392334,12.6766977310181,12.6865348815918,12.6963872909546,12.7062549591064,12.7161378860474,12.7260360717773,12.7359504699707,12.7458801269531,12.7558250427246,12.7657852172852,12.7757606506348,12.7857522964478,12.7957601547241,12.8057823181152,12.815821647644,12.8258752822876,12.8359460830688,12.8460321426392,12.8561334609985,12.8643608093262,12.8701505661011,12.8759450912476,12.8817443847656,12.8875494003296,12.8933601379395,12.8991756439209,12.9049968719482,12.9108228683472,12.9166536331177,12.9224901199341,12.9283323287964,12.9341793060303,12.9400320053101,13.0219993591309,13.0936117172241,13.1096353530884,13.1256980895996,13.1417999267578,13.157940864563,13.1741228103638,13.1903438568115,13.2066049575806,13.2229061126709,13.2392473220825,13.2556295394897,13.2720518112183,13.2885150909424,13.3050193786621,13.3215646743774,13.3381509780884,13.3547792434692,13.3714485168457,13.3881587982178,13.4049119949341,13.421706199646,13.4385433197021,13.4554224014282,13.4723443984985,13.4893083572388,13.5063161849976,13.5233659744263,13.5404586791992,13.5575952529907,13.5747747421265,13.5919981002808,13.6092653274536,13.626576423645,13.643931388855,13.6613311767578,13.6787748336792,13.6962633132935,13.7137966156006,13.7313747406006,13.7489976882935,13.7666664123535,13.7843809127808,13.8021402359009,13.8199453353882,13.837797164917,13.855694770813,13.8736391067505,13.8916292190552,13.9096670150757,13.9277515411377,13.9458827972412,13.9640617370605,13.9822874069214,14.000560760498,14.0188827514648,14.0372514724731,14.0556697845459,14.0741357803345,14.0926504135132,14.111213684082,14.1298265457153,14.1484880447388,14.1671991348267,14.185959815979,14.2125635147095,14.2399921417236,14.2675256729126,14.2951679229736,14.3229160308838,14.3507719039917,14.378737449646,14.4068117141724,14.4349956512451,14.4632902145386,14.4916954040527,14.5202131271362,14.5488424301147,14.5775861740112,14.6064424514771,14.6354141235352,14.6645002365112,14.6937026977539,14.7230215072632,14.7524576187134,14.7820119857788,14.8116846084595,14.8368234634399,14.8611011505127,14.885458946228,14.9098968505859,14.9344148635864,14.9590139389038,14.9836931228638,15.0084552764893,15.0332984924316,15.0582246780396,15.0832328796387,15.1083250045776,15.1335010528564,15.1587600708008,15.1841039657593,15.2095336914062,15.2350473403931,15.2606477737427,15.2863340377808,15.3121061325073,15.337965965271,15.3639135360718,15.3836126327515,15.3950986862183,15.4066009521484,15.4181213378906,15.4296579360962,15.4412126541138,15.452784538269,15.464373588562,15.4759798049927,15.4876041412354,15.4992456436157,15.5109043121338,15.5225811004639,15.5342750549316,15.5459871292114,15.5577163696289,15.5694637298584,15.5812282562256,15.5930109024048,15.604811668396,15.6166296005249,15.6284666061401,15.6403207778931,15.652193069458,15.664083480835,15.6759910583496,15.6879177093506,15.6998624801636,15.7118253707886,15.7238063812256,15.7358055114746,15.74782371521,15.7598600387573,15.7719144821167,15.7839870452881,15.7960786819458,15.8081884384155,15.8203172683716,15.8324642181396,15.8833351135254,15.9375438690186,15.9921236038208,16.0470771789551,16.0539131164551,16.0538063049316,16.0536994934082,16.0535926818848,16.0534858703613,16.0533790588379,16.0532722473145,16.053165435791,16.0530586242676,16.0529537200928,16.0528450012207,16.0527362823486,16.0526313781738,16.0525245666504,16.052417755127,16.0523090362549,16.0522060394287,16.0520973205566,16.0519905090332,16.0518836975098,16.051778793335,16.0516700744629,16.0515632629395,16.051456451416,16.0513515472412,16.0512428283691,16.0511379241943,16.0510292053223,16.0509243011475,16.0508155822754,16.0507106781006,16.0506000518799,16.0504970550537,16.0503902435303,16.0502815246582,16.0501728057861,16.0500717163086,16.0499629974365,16.0498542785645,16.0497455596924,16.0496444702148,16.0495338439941,16.0494270324707,16.0493202209473,16.0492153167725,16.0491065979004,16.048999786377,16.0488948822021,16.0487880706787,16.0486793518066,16.0485744476318,16.0484676361084,16.0483589172363,16.0482559204102,16.0481472015381,16.0480403900146,16.0479335784912,16.0478286743164,16.0477199554443,16.0476150512695,16.0475082397461,16.0474014282227,16.0472946166992,16.0471839904785,16.0470809936523,16.0469760894775,16.0468635559082,16.046760559082,16.04665184021,16.0465450286865,16.0464401245117,16.0463333129883,16.0462245941162,16.0461196899414,16.046012878418,16.0459079742432,16.0457992553711,16.0456943511963,16.0455875396729,16.0454807281494,16.045373916626,16.0452671051025,16.0451564788818,16.045051574707,16.0449485778809,16.0448398590088,16.0447311401367,16.0446262359619,16.0445194244385,16.0444107055664,16.0443058013916,16.0441989898682,16.0440921783447,16.0439853668213,16.0438804626465,16.0437698364258,16.0436668395996,16.0435600280762,16.0434513092041,16.0433444976807,16.0432415008545,16.0431308746338,16.043025970459,16.0429172515869,15.0945100784302,15.0393896102905,14.9847164154053,14.9304418563843,14.876558303833,14.8230628967285,14.7699508666992,14.7172174453735,14.6648597717285,14.6128730773926,14.5612535476685,14.5099973678589,14.4591007232666,14.4085607528687,14.3583726882935,14.3085336685181,14.2590389251709,14.209885597229,14.1610698699951,14.0467233657837,13.9987936019897,13.951189994812,13.9039087295532,13.8569469451904,13.8103017807007,13.7639694213867
12.1741027832031,12.1758108139038,12.1817750930786,12.1908588409424,12.1999559402466,12.2090663909912,12.2181911468506,12.2273292541504,12.2364816665649,12.2456464767456,12.2548265457153,12.2640190124512,12.2732257843018,12.2824468612671,12.2916812896729,12.3009300231934,12.3101921081543,12.31946849823,12.3287591934204,12.3380632400513,12.3473815917969,12.3567142486572,12.3660612106323,12.3754215240479,12.3847970962524,12.3941860198975,12.4035892486572,12.4130067825317,12.422438621521,12.4318857192993,12.4413461685181,12.4508209228516,12.4603109359741,12.4698152542114,12.4793338775635,12.4888668060303,12.4984140396118,12.5079765319824,12.5175533294678,12.5271453857422,12.5367517471313,12.5463724136353,12.5560083389282,12.5656585693359,12.575325012207,12.5850048065186,12.5946998596191,12.6044101715088,12.6141357421875,12.623875617981,12.6336317062378,12.6434020996094,12.65318775177,12.6629877090454,12.6728038787842,12.682635307312,12.6924810409546,12.7023429870605,12.7122201919556,12.7221126556396,12.7320203781128,12.741943359375,12.7518825531006,12.7618360519409,12.7718057632446,12.7817916870117,12.7917928695679,12.8018093109131,12.8118419647217,12.8218898773193,12.8319540023804,12.8420333862305,12.8496294021606,12.8554058074951,12.8611869812012,12.8669738769531,12.8727655410767,12.8785629272461,12.8843650817871,12.8901720046997,12.8959846496582,12.9018030166626,12.9076261520386,12.9134540557861,12.9192876815796,12.9251270294189,12.9309711456299,12.9733991622925,13.0825986862183,13.1105461120605,13.1266107559204,13.1427154541016,13.1588592529297,13.1750431060791,13.1912660598755,13.2075290679932,13.2238330841064,13.240177154541,13.2565612792969,13.272985458374,13.2894515991211,13.3059577941895,13.3225059509277,13.3390941619873,13.3557243347168,13.3723964691162,13.3891096115112,13.4058637619019,13.422661781311,13.4395008087158,13.4563827514648,13.4733066558838,13.490273475647,13.5072822570801,13.5243349075317,13.5414304733276,13.5585699081421,13.5757522583008,13.5929775238037,13.6102476119995,13.6275606155396,13.6449184417725,13.6623201370239,13.6797666549683,13.6972579956055,13.7147932052612,13.7323741912842,13.75,13.767671585083,13.7853879928589,13.803150177002,13.8209581375122,13.838812828064,13.8567132949829,13.874659538269,13.8926525115967,13.9106931686401,13.9287796020508,13.9469137191772,13.9650945663452,13.9833240509033,14.0016002655029,14.0199241638184,14.0382966995239,14.0567169189453,14.0751857757568,14.0937032699585,14.1122694015503,14.1308851242065,14.1495494842529,14.173734664917,14.2010135650635,14.2283973693848,14.2558870315552,14.283483505249,14.311185836792,14.338996887207,14.3669157028198,14.394944190979,14.4230813980103,14.4513292312622,14.4796876907349,14.5081577301025,14.5367403030396,14.5654354095459,14.5942440032959,14.6231670379639,14.6522045135498,14.6813583374023,14.7106275558472,14.7400140762329,14.7675809860229,14.7916326522827,14.8157634735107,14.8399724960327,14.8642606735229,14.8886289596558,14.9130773544312,14.9376058578491,14.9622144699097,14.9869050979614,15.0116777420044,15.0365314483643,15.0614681243896,15.0864877700806,15.111590385437,15.1367769241333,15.1620473861694,15.1874027252197,15.2128429412842,15.2383680343628,15.2639789581299,15.2896766662598,15.3154602050781,15.3413314819336,15.3661012649536,15.3775606155396,15.3890371322632,15.4005308151245,15.4120416641235,15.4235696792603,15.4351148605347,15.4466781616211,15.4582576751709,15.4698553085327,15.4814701080322,15.4931020736694,15.5047521591187,15.5164194107056,15.5281038284302,15.5398063659668,15.5515260696411,15.5632638931274,15.5750198364258,15.5867929458618,15.5985841751099,15.6103935241699,15.6222200393677,15.6340646743774,15.6459274291992,15.657808303833,15.6697072982788,15.6816244125366,15.6935596466064,15.705512046814,15.7174835205078,15.729474067688,15.7414817810059,15.7535076141357,15.765552520752,15.7776165008545,15.7896976470947,15.8017978668213,15.8139171600342,15.8260536193848,15.838210105896,15.8503847122192,15.8775835037231,15.9291706085205,15.9290685653687,15.9289608001709,15.9288549423218,15.928747177124,15.9286451339722,15.9285411834717,15.9284334182739,15.9283304214478,15.9282245635986,15.9281177520752,15.928014755249,15.9279079437256,15.9278030395508,15.9276990890503,15.9275932312012,15.9274873733521,15.9273834228516,15.9272775650024,15.927173614502,15.9270668029785,15.9269618988037,15.9268579483032,15.9267511367798,15.9266471862793,15.9265441894531,15.9264373779297,15.9263324737549,15.9262275695801,15.926121711731,15.9260177612305,15.9259099960327,15.9258079528809,15.9257030487061,15.9255962371826,15.9254941940308,15.9253826141357,15.9252786636353,15.9251747131348,15.9250688552856,15.9249649047852,15.9248609542847,15.9247560501099,15.9246501922607,15.924542427063,15.9244403839111,15.9243364334106,15.9242286682129,15.9241247177124,15.9240207672119,15.9239139556885,15.923810005188,15.9237041473389,15.9236001968384,15.9234962463379,15.9233884811401,15.9232845306396,15.9231796264648,15.9230718612671,15.9229698181152,15.9228620529175,15.922758102417,15.9226541519165,15.9225473403931,15.9224433898926,15.9223394393921,15.922233581543,15.9221296310425,15.922022819519,15.9219188690186,15.9218130111694,15.921706199646,15.9216022491455,15.9215002059937,15.9213924407959,15.9212865829468,15.921181678772,15.9210777282715,15.920973777771,15.9208679199219,15.9207639694214,15.9206590652466,15.9205503463745,15.9204473495483,15.9203405380249,15.9202365875244,15.9201345443726,15.9200277328491,15.919921875,15.9198179244995,15.9197120666504,15.9196071624756,15.9194993972778,15.919397354126,15.9192943572998,15.9191846847534,15.9190826416016,15.9189758300781,15.9188718795776,15.9187669754028,15.9186611175537,15.9185571670532,15.0945816040039,15.0394611358643,14.9847631454468,14.9304876327515,14.8766040802002,14.8231086730957,14.7699956893921,14.7172622680664,14.6649036407471,14.6129169464111,14.561297416687,14.5100412368774,14.4591445922852,14.4086036682129,14.3584146499634,14.3085737228394,14.2590789794922,14.2099256515503,14.1611099243164,14.0467767715454,13.9988470077515,13.9512424468994,13.9039611816406,13.8569993972778,13.8103532791138,13.7640209197998
12.1694326400757,12.1711397171021,12.1728467941284,12.1745548248291,12.1762628555298,12.1781787872314,12.1872577667236,12.1963491439819,12.205454826355,12.2145738601685,12.2237071990967,12.232852935791,12.2420139312744,12.2511873245239,12.2603750228882,12.2695760726929,12.2787914276123,12.2880210876465,12.2972631454468,12.3065204620361,12.3157911300659,12.3250761032104,12.3343744277954,12.3436880111694,12.3530149459839,12.3623552322388,12.3717107772827,12.3810806274414,12.3904638290405,12.3998613357544,12.409273147583,12.4187002182007,12.4281406402588,12.4375953674316,12.4470653533936,12.4565486907959,12.4660472869873,12.4755601882935,12.4850873947144,12.49462890625,12.5041856765747,12.5137567520142,12.5233430862427,12.5329427719116,12.5425586700439,12.552188873291,12.5618333816528,12.5714931488037,12.5811672210693,12.590856552124,12.6005611419678,12.6102800369263,12.6200151443481,12.6297636032104,12.6395282745361,12.6493082046509,12.6591024398804,12.6689128875732,12.6787376403809,12.6885776519775,12.6984338760376,12.7083044052124,12.7181911468506,12.7280921936035,12.7380094528198,12.7479419708252,12.7578907012939,12.7678537368774,12.7778329849243,12.7878274917603,12.7978382110596,12.8078641891479,12.8179063796997,12.8279638290405,12.8349323272705,12.8406953811646,12.8464632034302,12.8522367477417,12.8580150604248,12.8637990951538,12.8695878982544,12.8753814697266,12.8811807632446,12.8869857788086,12.8927955627441,12.8986101150513,12.9044303894043,12.9102563858032,12.9160871505737,12.9219226837158,12.9277639389038,13.0335454940796,13.111457824707,13.1275243759155,13.1436309814453,13.1597766876221,13.1759624481201,13.1921882629395,13.2084541320801,13.224760055542,13.2411060333252,13.257493019104,13.2739200592041,13.2903871536255,13.3068962097168,13.3234462738037,13.3400373458862,13.3566703796387,13.3733444213867,13.3900594711304,13.4068174362183,13.4236164093018,13.4404582977295,13.4573421478271,13.474268913269,13.4912385940552,13.5082502365112,13.5253047943115,13.5424032211304,13.5595445632935,13.5767288208008,13.5939569473267,13.6112289428711,13.6285457611084,13.6459054946899,13.6633100509644,13.6807594299316,13.6982526779175,13.7157907485962,13.7333736419678,13.7510023117065,13.7686758041382,13.786395072937,13.804160118103,13.8219709396362,13.8398275375366,13.8577308654785,13.8756799697876,13.8936758041382,13.9117193222046,13.9298086166382,13.9479446411133,13.9661283493042,13.9843606948853,14.0026388168335,14.0209665298462,14.0393409729004,14.057765007019,14.0762357711792,14.0947561264038,14.1133251190186,14.1351184844971,14.1622486114502,14.1894826889038,14.2168216705322,14.2442665100098,14.2718181610107,14.2994756698608,14.3272409439087,14.3551139831543,14.383095741272,14.411187171936,14.4393882751465,14.4677000045776,14.4961233139038,14.524658203125,14.5533056259155,14.5820665359497,14.6109409332275,14.6399297714233,14.6690340042114,14.6982545852661,14.7228107452393,14.7467164993286,14.7707004547119,14.7947626113892,14.8189029693604,14.8431224822998,14.8674211502075,14.8917999267578,14.9162588119507,14.9407978057861,14.9654169082642,14.9901189804077,15.0149011611938,15.0397663116455,15.0647134780884,15.0897436141968,15.114857673645,15.1400547027588,15.1653366088867,15.1907024383545,15.2161531448364,15.2416896820068,15.2673120498657,15.2930212020874,15.3188161849976,15.3446989059448,15.3600625991821,15.3715133666992,15.3829803466797,15.3944654464722,15.4059677124023,15.4174861907959,15.4290227890015,15.4405755996704,15.4521465301514,15.46373462677,15.4753408432007,15.4869632720947,15.4986038208008,15.5102624893188,15.5219373703003,15.5336303710938,15.5453414916992,15.5570697784424,15.5688161849976,15.5805797576904,15.5923614501953,15.6041612625122,15.6159791946411,15.6278142929077,15.6396675109863,15.651538848877,15.6634283065796,15.6753349304199,15.6872606277466,15.6992044448853,15.7111663818359,15.7231464385986,15.7351446151733,15.7471618652344,15.7591962814331,15.7712497711182,15.7833223342896,15.7954120635986,15.8067665100098,15.806661605835,15.8065595626831,15.8064546585083,15.8063526153564,15.8062505722046,15.8061437606812,15.8060417175293,15.8059396743774,15.8058347702026,15.8057308197021,15.8056268692017,15.8055238723755,15.805419921875,15.8053169250488,15.8052129745483,15.8051109313965,15.8050060272217,15.8049039840698,15.8047971725464,15.8046932220459,15.8045930862427,15.8044881820679,15.8043842315674,15.8042840957642,15.8041772842407,15.8040742874146,15.8039703369141,15.8038682937622,15.803765296936,15.8036584854126,15.8035583496094,15.8034543991089,15.8033494949341,15.8032474517822,15.8031425476074,15.8030385971069,15.8029356002808,15.8028316497803,15.8027305603027,15.8026266098022,15.8025236129761,15.8024196624756,15.8023128509521,15.802209854126,15.8021097183228,15.8020048141479,15.8019008636475,15.8017988204956,15.8016939163208,15.8015909194946,15.8014860153198,15.801383972168,15.8012819290161,15.8011751174927,15.8010740280151,15.8009672164917,15.8008670806885,15.8007650375366,15.8006582260132,15.800555229187,15.8004531860352,15.8003482818604,15.8002462387085,15.8001394271851,15.8000392913818,15.7999362945557,15.7998294830322,15.7997264862061,15.7996263504028,15.799521446228,15.7994174957275,15.7993125915527,15.7992095947266,15.7991075515747,15.7990045547485,15.7989015579224,15.7987976074219,15.7986927032471,15.7985916137695,15.7984848022461,15.7983827590942,15.7982816696167,15.7981767654419,15.7980728149414,15.7979698181152,15.7978649139404,15.7977647781372,15.7976579666138,15.7975568771362,15.7974529266357,15.7973470687866,15.7972469329834,15.7971448898315,15.7970390319824,15.7969350814819,15.7968301773071,15.7967290878296,15.7966251373291,15.7965221405029,15.7964191436768,15.7963161468506,15.7962093353271,15.7961091995239,15.0946779251099,15.0395317077637,14.9848117828369,14.930534362793,14.8766498565674,14.8231534957886,14.770040512085,14.7173070907593,14.6649484634399,14.6129608154297,14.5613412857056,14.5100841522217,14.4591875076294,14.4086465835571,14.3584575653076,14.3086166381836,14.2591209411621,14.2099657058716,14.1611499786377,14.1126680374146,13.9988965988159,13.9512958526611,13.904013633728,13.8570508956909,13.8104047775269,13.7640724182129
12.1647663116455,12.1664724349976,12.1681776046753,12.1698846817017,12.171591758728,12.1732988357544,12.1750068664551,12.1767148971558,12.1784238815308,12.1836585998535,12.1927452087402,12.2018451690674,12.2109594345093,12.2200860977173,12.22922706604,12.2383823394775,12.2475509643555,12.2567329406738,12.2659282684326,12.2751388549805,12.2843618392944,12.2935991287231,12.3028507232666,12.3121156692505,12.3213949203491,12.3306884765625,12.3399963378906,12.3493175506592,12.3586530685425,12.3680019378662,12.377366065979,12.3867435455322,12.3961362838745,12.4055423736572,12.4149627685547,12.4243984222412,12.4338474273682,12.4433107376099,12.4527893066406,12.4622821807861,12.4717884063721,12.4813108444214,12.4908466339111,12.5003976821899,12.5099630355835,12.5195426940918,12.5291376113892,12.5387468338013,12.5483713150024,12.5580101013184,12.567663192749,12.5773324966431,12.5870161056519,12.5967140197754,12.606427192688,12.6161556243896,12.6258993148804,12.6356573104858,12.6454315185547,12.6552200317383,12.6650238037109,12.6748428344727,12.6846771240234,12.6945266723633,12.7043914794922,12.7142715454102,12.7241668701172,12.7340784072876,12.7440042495728,12.7539463043213,12.7639036178589,12.7738771438599,12.7838659286499,12.793869972229,12.8038902282715,12.813925743103,12.8202686309814,12.8260183334351,12.8317728042603,12.8375329971313,12.843297958374,12.8490686416626,12.8548440933228,12.8606252670288,12.8664112091064,12.87220287323,12.8779993057251,12.8838005065918,12.8896074295044,12.8954200744629,12.901237487793,12.9070596694946,12.9128875732422,12.9187211990356,12.9848585128784,13.0942525863647,13.1284379959106,13.1445465087891,13.1606950759888,13.1768836975098,13.1931114196777,13.209379196167,13.2256870269775,13.2420358657837,13.2584247589111,13.2748537063599,13.2913246154785,13.3078355789185,13.324387550354,13.3409805297852,13.3576154708862,13.3742923736572,13.3910102844238,13.4077701568604,13.4245719909668,13.4414167404175,13.4583024978638,13.4752311706543,13.4922027587891,13.5092172622681,13.5262746810913,13.5433750152588,13.5605192184448,13.5777063369751,13.5949373245239,13.612211227417,13.6295299530029,13.6468925476074,13.6642999649048,13.6817512512207,13.6992473602295,13.7167882919312,13.7343740463257,13.7520046234131,13.7696809768677,13.7874031066895,13.8051710128784,13.8229837417603,13.8408432006836,13.8587493896484,13.8767004013062,13.8946990966797,13.9127445220947,13.9308366775513,13.9489765167236,13.9671630859375,13.9853973388672,14.0036792755127,14.022008895874,14.0403861999512,14.0588121414185,14.0772867202759,14.0967111587524,14.1236944198608,14.1507806777954,14.1779708862305,14.205265045166,14.232666015625,14.2601718902588,14.287784576416,14.3155040740967,14.3433313369751,14.3712673187256,14.3993120193481,14.4274673461914,14.4557323455811,14.4841079711914,14.5125961303711,14.5411958694458,14.5699081420898,14.5987348556519,14.6276750564575,14.6546258926392,14.6783113479614,14.702073097229,14.7259120941162,14.749828338623,14.7738218307495,14.7978944778442,14.8220443725586,14.8462743759155,14.8705835342407,14.8949728012085,14.9194412231445,14.9439907073975,14.9686212539673,14.993332862854,15.0181264877319,15.0430021286011,15.0679597854614,15.0930013656616,15.1181259155273,15.1433334350586,15.1686267852783,15.1940031051636,15.2194652557373,15.2450132369995,15.2706470489502,15.2963666915894,15.3221731185913,15.342604637146,15.3540296554565,15.3654708862305,15.3769292831421,15.3884048461914,15.3998975753784,15.4114074707031,15.4229345321655,15.4344787597656,15.4460411071777,15.4576196670532,15.4692163467407,15.4808301925659,15.4924612045288,15.5041103363037,15.5157766342163,15.5274600982666,15.5391616821289,15.5508804321289,15.5626173019409,15.5743722915649,15.5861444473267,15.5979347229004,15.6097421646118,15.6215686798096,15.633412361145,15.6452741622925,15.657154083252,15.6690511703491,15.6809673309326,15.6866369247437,15.6865348815918,15.6864318847656,15.6863307952881,15.6862287521362,15.6861257553101,15.6860227584839,15.685923576355,15.6858215332031,15.6857166290283,15.6856174468994,15.6855154037476,15.6854124069214,15.6853113174438,15.685206413269,15.6851072311401,15.6850051879883,15.6849012374878,15.6848011016846,15.6847009658813,15.6845951080322,15.6844968795776,15.6843919754028,15.6842889785767,15.6841917037964,15.6840867996216,15.683985710144,15.6838808059692,15.6837825775146,15.6836795806885,15.6835765838623,15.6834764480591,15.6833734512329,15.6832704544067,15.6831684112549,15.683066368103,15.6829652786255,15.6828641891479,15.6827611923218,15.6826610565186,15.6825580596924,15.6824569702148,15.6823558807373,15.6822500228882,15.682149887085,15.6820487976074,15.6819458007812,15.6818447113037,15.6817445755005,15.681640625,15.6815404891968,15.6814346313477,15.6813344955444,15.6812334060669,15.6811294555664,15.6810312271118,15.6809282302856,15.6808252334595,15.6807241439819,15.6806211471558,15.6805200576782,15.6804170608521,15.6803159713745,15.6802129745483,15.6801137924194,15.6800107955933,15.6799097061157,15.6798048019409,15.6797037124634,15.6796045303345,15.6795015335083,15.6793985366821,15.6792993545532,15.6791944503784,15.6790933609009,15.6789922714233,15.6788892745972,15.6787900924683,15.6786832809448,15.6785840988159,15.6784830093384,15.6783781051636,15.6782808303833,15.6781749725342,15.678074836731,15.6779727935791,15.6778717041016,15.6777687072754,15.6776676177979,15.6775665283203,15.6774635314941,15.677360534668,15.6772594451904,15.6771602630615,15.6770544052124,15.6769542694092,15.6768531799316,15.6767511367798,15.6766500473022,15.6765451431274,15.6764459609985,15.6763429641724,15.6762399673462,15.676139831543,15.6760396957397,15.6759338378906,15.6758365631104,15.6757297515869,15.6756296157837,15.6755294799805,15.67542552948,15.0396032333374,14.9848823547363,14.9305801391602,14.8766956329346,14.8231992721558,14.7700853347778,14.7173519134521,14.6649923324585,14.6130056381226,14.5613851547241,14.5101280212402,14.4592304229736,14.4086894989014,14.3584995269775,14.3086585998535,14.259162902832,14.2100076675415,14.1611909866333,14.1127080917358,14.0360431671143,13.9698390960693,13.9042568206787,13.8570938110352,13.810450553894,13.7641201019287
12.1601037979126,12.161808013916,12.1635131835938,12.1652183532715,12.1669235229492,12.1686296463013,12.1703367233276,12.172043800354,12.1737508773804,12.1754589080811,12.1771678924561,12.1788768768311,12.1805868148804,12.1891431808472,12.1982383728027,12.2073459625244,12.2164678573608,12.225604057312,12.2347526550293,12.2439165115356,12.2530927658081,12.2622833251953,12.2714872360229,12.2807054519653,12.2899379730225,12.2991828918457,12.308443069458,12.3177165985107,12.3270044326782,12.3363065719604,12.3456220626831,12.3549518585205,12.3642959594727,12.3736543655396,12.3830261230469,12.3924131393433,12.4018135070801,12.4112281799316,12.4206581115723,12.4301013946533,12.4395589828491,12.449031829834,12.4585189819336,12.4680204391479,12.4775362014771,12.4870662689209,12.4966115951538,12.5061702728271,12.5157451629639,12.525333404541,12.5349369049072,12.5445556640625,12.5541887283325,12.5638360977173,12.5734996795654,12.583176612854,12.592869758606,12.6025762557983,12.6122989654541,12.6220369338989,12.6317892074585,12.6415567398071,12.6513395309448,12.6611366271973,12.6709499359131,12.680778503418,12.6906223297119,12.7004804611206,12.7103548049927,12.7202444076538,12.730149269104,12.7400693893433,12.7500057220459,12.7599563598633,12.769923210144,12.7799062728882,12.7899036407471,12.7999067306519,12.8056373596191,12.8113746643066,12.8171167373657,12.8228635787964,12.8286151885986,12.8343725204468,12.8401346206665,12.8459024429321,12.8516750335693,12.8574533462524,12.8632364273071,12.8690252304077,12.8748188018799,12.8806171417236,12.8864212036133,12.8922309875488,12.898045539856,12.9038648605347,12.9096899032593,12.9365348815918,13.0451126098633,13.1293516159058,13.1454629898071,13.1616134643555,13.1778039932251,13.1940336227417,13.2103042602539,13.2266149520874,13.2429656982422,13.2593564987183,13.2757883071899,13.2922601699829,13.3087739944458,13.3253288269043,13.3419246673584,13.3585615158081,13.3752403259277,13.3919610977173,13.4087228775024,13.4255275726318,13.4423742294312,13.4592628479004,13.4761943817139,13.4931678771973,13.5101852416992,13.5272445678711,13.5443477630615,13.5614938735962,13.5786838531494,13.5959167480469,13.6131935119629,13.6305150985718,13.6478805541992,13.6652898788452,13.6827440261841,13.7002420425415,13.7177858352661,13.7353734970093,13.7530069351196,13.7706861495972,13.7884111404419,13.8061809539795,13.8239965438843,13.8418588638306,13.859766960144,13.877721786499,13.8957223892212,13.9137706756592,13.9318656921387,13.9500074386597,13.9681968688965,13.9864339828491,14.0047187805176,14.0230512619019,14.041431427002,14.0598602294922,14.0853490829468,14.1122884750366,14.1393308639526,14.1664772033691,14.1937274932861,14.2210836410522,14.2485446929932,14.2761116027832,14.303786277771,14.3315687179565,14.3594589233398,14.3874578475952,14.4155654907227,14.4437837600708,14.4721126556396,14.5005531311035,14.5291061401367,14.5577707290649,14.5865488052368,14.6105375289917,14.6340799331665,14.6576986312866,14.6813936233521,14.7051649093628,14.7290134429932,14.7529401779175,14.7769441604614,14.8010263442993,14.8251876831055,14.8494281768799,14.8737468719482,14.8981466293335,14.922625541687,14.9471855163574,14.9718265533447,14.9965486526489,15.0213527679443,15.046238899231,15.0712080001831,15.0962600708008,15.121395111084,15.146614074707,15.1719179153442,15.1973056793213,15.2227792739868,15.2483377456665,15.273983001709,15.2997140884399,15.3251867294312,15.3365850448608,15.3480005264282,15.3594331741333,15.3708820343018,15.3823490142822,15.3938322067261,15.4053335189819,15.4168510437012,15.4283866882324,15.4399394989014,15.451509475708,15.4630966186523,15.4747009277344,15.4863233566284,15.4979629516602,15.5096197128296,15.521294593811,15.5329866409302,15.544695854187,15.5564241409302,15.5681686401367,15.5683193206787,15.5682182312012,15.5681171417236,15.5680179595947,15.5679168701172,15.5678157806396,15.5677137374878,15.5676155090332,15.5675163269043,15.5674123764038,15.5673131942749,15.5672159194946,15.5671129226685,15.5670137405396,15.566912651062,15.5668115615845,15.5667123794556,15.5666103363037,15.5665111541748,15.5664119720459,15.5663089752197,15.5662097930908,15.5661067962646,15.5660076141357,15.5659103393555,15.565806388855,15.5657072067261,15.5656080245972,15.565505027771,15.5654058456421,15.5653038024902,15.5652046203613,15.5651054382324,15.5650043487549,15.5649032592773,15.5648059844971,15.5647029876709,15.5646047592163,15.5645017623901,15.5644025802612,15.5643033981323,15.5642013549805,15.5641021728516,15.5640029907227,15.5638990402222,15.5638008117676,15.5636987686157,15.5635976791382,15.5635004043579,15.5633983612061,15.5632972717285,15.5631980895996,15.5630970001221,15.5629978179932,15.5628938674927,15.5627965927124,15.5626974105835,15.562593460083,15.5624961853027,15.5623970031738,15.5622930526733,15.5621938705444,15.5620927810669,15.5619926452637,15.5618934631348,15.5617923736572,15.5616912841797,15.5615930557251,15.5614900588989,15.5613927841187,15.5612888336182,15.5611896514893,15.561092376709,15.5609884262085,15.5608892440796,15.5607919692993,15.5606880187988,15.5605888366699,15.5604867935181,15.5603876113892,15.5602884292603,15.5601863861084,15.5600872039795,15.5599870681763,15.5598859786987,15.5597848892212,15.5596828460693,15.5595836639404,15.5594854354858,15.5593824386597,15.5592832565308,15.5591850280762,15.55908203125,15.5589838027954,15.5588808059692,15.558780670166,15.5586833953857,15.5585813522339,15.5584802627563,15.5583829879761,15.5582809448242,15.5581798553467,15.5580778121948,15.5579805374146,15.5578804016113,15.5577764511108,15.5576791763306,15.5575799942017,15.5574760437012,15.5573787689209,15.557276725769,15.5571765899658,15.5570774078369,15.5569763183594,15.5568761825562,15.5567770004272,15.556676864624,15.0396738052368,14.9849529266357,14.930627822876,14.8767414093018,14.8232440948486,14.770131111145,14.717396736145,14.6650371551514,14.6130495071411,14.5614290237427,14.5101718902588,14.4592742919922,14.4087324142456,14.3585424423218,14.3087015151978,14.259204864502,14.2100496292114,14.1612319946289,14.1179819107056,14.1175594329834,14.0113658905029,13.9453935623169,13.8800401687622,13.81529712677,13.7641553878784
12.155445098877,12.1571474075317,12.1588506698608,12.1605548858643,12.1622591018677,12.1639642715454,12.1656694412231,12.1673755645752,12.1690816879272,12.1707887649536,12.17249584198,12.1742029190063,12.1759119033813,12.177619934082,12.1793298721313,12.1810388565063,12.1855430603027,12.1946325302124,12.2037353515625,12.2128524780273,12.2219820022583,12.231125831604,12.2402839660645,12.249454498291,12.2586402893066,12.2678384780884,12.2770509719849,12.2862777709961,12.2955179214478,12.3047723770142,12.314040184021,12.3233222961426,12.3326187133789,12.34192943573,12.3512535095215,12.3605918884277,12.3699445724487,12.3793106079102,12.3886919021606,12.3980865478516,12.4074964523315,12.416919708252,12.4263572692871,12.4358100891113,12.445276260376,12.4547576904297,12.4642534255981,12.4737634658813,12.4832878112793,12.4928274154663,12.5023813247681,12.5119495391846,12.5215320587158,12.5311298370361,12.5407428741455,12.5503702163696,12.5600118637085,12.5696687698364,12.5793399810791,12.5890274047852,12.5987281799316,12.6084451675415,12.6181764602661,12.6279230117798,12.6376848220825,12.6474609375,12.6572532653809,12.6670598983765,12.6768817901611,12.6867198944092,12.696572303772,12.7064399719238,12.7163238525391,12.7262229919434,12.7361364364624,12.7460660934448,12.7560119628906,12.7659721374512,12.7759485244751,12.7853221893311,12.7910404205322,12.7967643737793,12.8024930953979,12.8082265853882,12.8139657974243,12.819709777832,12.8254594802856,12.8312139511108,12.8369731903076,12.8427381515503,12.8485078811646,12.8542833328247,12.8600635528564,12.8658485412598,12.871639251709,12.8774356842041,12.8832368850708,12.8890428543091,12.8948545455933,12.9006719589233,12.906494140625,12.9963397979736,13.1059274673462,13.1463794708252,13.1625318527222,13.1787242889404,13.19495677948,13.2112293243408,13.2275419235229,13.2438945770264,13.2602882385254,13.2767219543457,13.2931976318359,13.3097133636475,13.3262701034546,13.3428678512573,13.35950756073,13.3761892318726,13.3929119110107,13.4096765518188,13.4264831542969,13.4433317184448,13.460223197937,13.4771566390991,13.4941329956055,13.5111522674561,13.5282144546509,13.5453195571899,13.5624685287476,13.5796613693237,13.5968971252441,13.6141757965088,13.6314992904663,13.6488676071167,13.6662797927856,13.6837358474731,13.7012367248535,13.7187833786011,13.7363739013672,13.7540102005005,13.7716913223267,13.7894191741943,13.8071918487549,13.8250102996826,13.8428745269775,13.860785484314,13.8787431716919,13.896746635437,13.9147968292236,13.9328947067261,13.95103931427,13.9692316055298,13.9874715805054,14.0057582855225,14.0240936279297,14.0472116470337,14.0740051269531,14.1009006500244,14.1278991699219,14.1550016403198,14.1822080612183,14.2095193862915,14.2369365692139,14.264458656311,14.292088508606,14.31982421875,14.3476686477661,14.3756217956543,14.4036836624146,14.4318561553955,14.4601373672485,14.4885311126709,14.5170364379883,14.5433864593506,14.5667123794556,14.5901145935059,14.6135911941528,14.6371431350708,14.6607723236084,14.684476852417,14.7082586288452,14.7321176528931,14.7560539245605,14.780068397522,14.804160118103,14.8283319473267,14.8525819778442,14.8769121170044,14.9013214111328,14.9258117675781,14.9503812789917,14.9750328063965,14.9997663497925,15.0245809555054,15.0494775772095,15.0744571685791,15.0995197296143,15.1246662139893,15.1498966217041,15.1752109527588,15.2006101608276,15.2260942459106,15.2516641616821,15.2773199081421,15.3030624389648,15.3191804885864,15.3305702209473,15.3419761657715,15.3533992767334,15.3648405075073,15.3762979507446,15.3877725601196,15.3992643356323,15.4107732772827,15.4222993850708,15.4338426589966,15.4454030990601,15.4518718719482,15.4517726898193,15.4516735076904,15.4515752792358,15.4514760971069,15.4513759613037,15.4512786865234,15.4511795043945,15.4510803222656,15.450982093811,15.4508810043335,15.4507827758789,15.4506874084473,15.4505853652954,15.4504861831665,15.4503889083862,15.450288772583,15.4501895904541,15.4500894546509,15.4499921798706,15.4498929977417,15.4497928619385,15.4496955871582,15.4495973587036,15.4494953155518,15.4493999481201,15.4492969512939,15.449200630188,15.4491014480591,15.4490032196045,15.4489040374756,15.4488067626953,15.4487066268921,15.4486074447632,15.4485054016113,15.4484090805054,15.4483118057251,15.4482107162476,15.448112487793,15.4480152130127,15.4479150772095,15.4478158950806,15.4477157592773,15.4476175308228,15.4475202560425,15.4474182128906,15.447322845459,15.4472236633301,15.4471216201782,15.4470262527466,15.446925163269,15.4468259811401,15.4467277526855,15.4466285705566,15.4465303421021,15.4464311599731,15.4463329315186,15.4462337493896,15.4461336135864,15.4460363388062,15.4459381103516,15.4458360671997,15.4457387924194,15.4456424713135,15.4455404281616,15.4454431533813,15.4453430175781,15.4452457427979,15.4451475143433,15.44504737854,15.4449481964111,15.4448499679565,15.4447498321533,15.444652557373,15.4445524215698,15.4444541931152,15.444356918335,15.4442567825317,15.4441576004028,15.4440593719482,15.443959236145,15.4438610076904,15.4437608718872,15.4436635971069,15.4435663223267,15.4434652328491,15.4433660507202,15.4432706832886,15.4431676864624,15.4430704116821,15.4429702758789,15.4428720474243,15.442774772644,15.4426746368408,15.4425783157349,15.442479133606,15.4423780441284,15.4422807693481,15.4421787261963,15.4420804977417,15.4419851303101,15.4418830871582,15.4417867660522,15.4416847229004,15.4415874481201,15.4414911270142,15.4413871765137,15.4412908554077,15.4411935806274,15.4410924911499,15.4409971237183,15.4408950805664,15.4407968521118,15.4406995773315,15.4405994415283,15.4404993057251,15.4404029846191,15.4403028488159,15.4402046203613,15.4401044845581,15.4400062561035,15.4399089813232,15.43980884552,15.4397087097168,15.4396123886108,14.9850234985352,14.9306983947754,14.8767871856689,14.8232898712158,14.7701759338379,14.7174415588379,14.6650819778442,14.6130933761597,14.5614728927612,14.510214805603,14.4593172073364,14.4087753295898,14.358585357666,14.3087434768677,14.2592468261719,14.2100915908813,14.1612758636475,14.1317491531372,14.1313257217407,14.0531396865845,13.9867744445801,13.9210338592529,13.8559083938599,13.7913885116577
12.1507892608643,12.1524906158447,12.1541929244995,12.1558952331543,12.1575984954834,12.1593017578125,12.1610059738159,12.1627111434937,12.1644153594971,12.1661214828491,12.1678266525269,12.1695337295532,12.1712408065796,12.172947883606,12.1746559143066,12.1763639450073,12.1780729293823,12.1797819137573,12.1814918518066,12.183201789856,12.191029548645,12.2001266479492,12.2092380523682,12.2183628082275,12.2275009155273,12.2366533279419,12.2458190917969,12.2549991607666,12.2641916275024,12.2733993530273,12.2826204299927,12.2918548583984,12.3011035919189,12.3103666305542,12.3196430206299,12.3289337158203,12.3382387161255,12.3475570678711,12.3568897247314,12.3662366867065,12.3755979537964,12.3849725723267,12.394362449646,12.4037656784058,12.4131841659546,12.4226160049438,12.4320631027222,12.4415235519409,12.4509992599487,12.4604892730713,12.4699935913086,12.4795122146606,12.4890460968018,12.4985933303833,12.5081558227539,12.5177335739136,12.527325630188,12.5369319915771,12.5465536117554,12.5561895370483,12.5658407211304,12.5755062103271,12.585186958313,12.5948829650879,12.6045932769775,12.6143188476562,12.6240587234497,12.6338148117065,12.6435852050781,12.6533708572388,12.6631717681885,12.6729879379272,12.6828193664551,12.692666053772,12.7025279998779,12.7124061584473,12.7222986221313,12.7322063446045,12.742130279541,12.7520694732666,12.7620239257812,12.7707710266113,12.7764768600464,12.782187461853,12.7879028320312,12.7936239242554,12.7993497848511,12.8050804138184,12.8108167648315,12.8165578842163,12.822304725647,12.8280563354492,12.833812713623,12.8395748138428,12.8453416824341,12.8511142730713,12.8568916320801,12.8626747131348,12.868462562561,12.8742551803589,12.8800535202026,12.8858575820923,12.8916664123535,12.8974800109863,12.9479303359985,13.0566997528076,13.1472949981689,13.1634502410889,13.1796445846558,13.1958799362183,13.2121543884277,13.2284698486328,13.2448253631592,13.2612209320068,13.2776565551758,13.2941341400146,13.3106517791748,13.3272113800049,13.3438119888306,13.3604545593262,13.3771371841431,13.3938627243042,13.4106302261353,13.4274387359619,13.4442901611328,13.4611835479736,13.4781198501587,13.495099067688,13.5121202468872,13.529185295105,13.546293258667,13.5634441375732,13.580638885498,13.5978765487671,13.615159034729,13.6324853897095,13.6498556137085,13.6672697067261,13.6847286224365,13.7022323608398,13.719780921936,13.7373743057251,13.7550134658813,13.7726974487305,13.7904272079468,13.8082027435303,13.8260231018066,13.8438901901245,13.8618040084839,13.8797636032104,13.8977699279785,13.9158239364624,13.9339237213135,13.9520711898804,13.9702663421631,13.9885082244873,14.0092802047729,14.0359296798706,14.0626792907715,14.0895318984985,14.1164875030518,14.1435451507568,14.1707077026367,14.1979751586914,14.2253465652466,14.2528247833252,14.2804088592529,14.3080997467041,14.335898399353,14.363805770874,14.3918218612671,14.4199466705322,14.4481821060181,14.4765281677246,14.4999628067017,14.5231504440308,14.5464115142822,14.5697479248047,14.5931596755981,14.6166458129883,14.6402082443237,14.6638469696045,14.6875619888306,14.711353302002,14.735221862793,14.7591686248779,14.7831935882568,14.8072957992554,14.8314771652222,14.8557376861572,14.8800783157349,14.9044981002808,14.9289979934692,14.9535789489746,14.9782409667969,15.0029850006104,15.0278100967407,15.0527181625366,15.0777082443237,15.1027822494507,15.1279392242432,15.1531801223755,15.1785049438477,15.2039155960083,15.2294111251831,15.2549915313721,15.2806587219238,15.301815032959,15.3131790161133,15.324559211731,15.3359565734863,15.3370542526245,15.3369579315186,15.3368625640869,15.3367624282837,15.3366661071777,15.3365678787231,15.3364706039429,15.3363742828369,15.336275100708,15.3361787796021,15.3360824584961,15.3359832763672,15.3358888626099,15.3357887268066,15.3356914520264,15.335597038269,15.3354969024658,15.3353996276855,15.3353033065796,15.335205078125,15.3351068496704,15.3350067138672,15.3349113464355,15.3348150253296,15.3347148895264,15.3346195220947,15.3345232009888,15.3344249725342,15.3343276977539,15.3342294692993,15.3341331481934,15.3340358734131,15.3339376449585,15.3338413238525,15.3337440490723,15.3336448669434,15.3335475921631,15.3334474563599,15.3333511352539,15.3332557678223,15.3331565856934,15.3330593109131,15.3329648971558,15.3328647613525,15.3327693939209,15.332670211792,15.3325748443604,15.3324785232544,15.3323783874512,15.3322820663452,15.3321847915649,15.3320846557617,15.3319883346558,15.3318901062012,15.3317937850952,15.3316974639893,15.3315992355347,15.3315019607544,15.3314037322998,15.3313055038452,15.3312091827393,15.3311109542847,15.3310146331787,15.3309192657471,15.3308191299438,15.3307228088379,15.3306245803833,15.3305282592773,15.3304300308228,15.3303298950195,15.3302354812622,15.3301391601562,15.330039024353,15.3299436569214,15.3298444747925,15.3297481536865,15.3296508789062,15.3295516967773,15.3294563293457,15.3293600082397,15.3292617797852,15.3291654586792,15.329065322876,15.3289709091187,15.3288726806641,15.3287725448608,15.3286762237549,15.3285818099976,15.3284816741943,15.3283853530884,15.3282871246338,15.3281888961792,15.3280925750732,15.3279943466187,15.3278980255127,15.3278017044067,15.3277034759521,15.3276081085205,15.327507019043,15.327410697937,15.3273162841797,15.3272161483765,15.3271198272705,15.3270235061646,15.32692527771,15.3268270492554,15.3267278671265,15.3266324996948,15.3265361785889,15.32643699646,15.3263397216797,15.3262434005737,15.3261442184448,15.3260478973389,15.3259496688843,15.325855255127,15.3257570266724,15.3256587982178,15.3255624771118,15.3254661560059,15.3253660202026,15.3252696990967,15.3251705169678,15.3250741958618,15.3249797821045,15.3248796463013,15.3247833251953,15.3246870040894,15.3245878219604,15.3244915008545,15.3243913650513,14.9850940704346,14.9307680130005,14.8768348693848,14.823335647583,14.7702207565308,14.7174863815308,14.6651258468628,14.6131372451782,14.5615167617798,14.5102586746216,14.4593601226807,14.4088182449341,14.3586273193359,14.3087854385376,14.2592887878418,14.2101354598999,14.1613178253174,14.1455421447754,14.1451177597046,14.1446943283081,14.0284023284912,13.96226978302,13.8967590332031,13.831859588623
12.1461372375488,12.147837638855,12.1495380401611,12.1512393951416,12.1529417037964,12.1546440124512,12.156346321106,12.1580495834351,12.1597537994385,12.1614570617676,12.1631622314453,12.164867401123,12.1665725708008,12.1682786941528,12.1699857711792,12.1716928482056,12.1733999252319,12.1751079559326,12.1768159866333,12.1785249710083,12.1802349090576,12.1819448471069,12.1836547851562,12.1874284744263,12.1965208053589,12.2056264877319,12.2147455215454,12.2238788604736,12.2330255508423,12.2421855926514,12.2513599395752,12.2605476379395,12.2697496414185,12.2789649963379,12.2881937026978,12.2974376678467,12.3066940307617,12.3159656524658,12.3252506256104,12.3345499038696,12.3438625335693,12.3531904220581,12.3625316619873,12.3718862533569,12.3812561035156,12.3906402587891,12.4000377655029,12.4094505310059,12.4188766479492,12.4283180236816,12.4377737045288,12.4472427368164,12.4567270278931,12.4662256240845,12.4757385253906,12.4852666854858,12.4948081970215,12.5043649673462,12.51393699646,12.5235233306885,12.5331239700317,12.5427389144897,12.5523691177368,12.5620145797729,12.5716743469238,12.5813493728638,12.5910387039185,12.6007432937622,12.610463142395,12.6201972961426,12.6299476623535,12.6397123336792,12.6494922637939,12.6592864990234,12.6690969467163,12.6789226531982,12.6887626647949,12.698618888855,12.7084903717041,12.7183771133423,12.7282791137695,12.7381963729858,12.7481288909912,12.7562532424927,12.7619457244873,12.7676439285278,12.7733459472656,12.7790536880493,12.7847671508789,12.7904853820801,12.7962083816528,12.8019361495972,12.8076696395874,12.8134078979492,12.8191518783569,12.8249006271362,12.8306541442871,12.8364133834839,12.8421773910522,12.8479471206665,12.8537216186523,12.8595018386841,12.8652868270874,12.8710765838623,12.8768720626831,12.8826732635498,12.8884792327881,12.8998794555664,13.0078401565552,13.1176233291626,13.1643695831299,13.1805658340454,13.1968030929565,13.213080406189,13.2293977737427,13.2457551956177,13.262152671814,13.2785911560059,13.2950716018677,13.3115921020508,13.3281536102295,13.3447561264038,13.361400604248,13.3780860900879,13.3948135375977,13.4115829467773,13.4283952713013,13.4452486038208,13.4621438980103,13.4790830612183,13.4960641860962,13.5130882263184,13.5301551818848,13.5472650527954,13.5644187927246,13.5816164016724,13.5988569259644,13.6161413192749,13.6334705352783,13.650842666626,13.6682596206665,13.6857213973999,13.7032279968262,13.720778465271,13.738374710083,13.7560157775879,13.77370262146,13.7914352416992,13.8092126846313,13.827036857605,13.8449068069458,13.8628225326538,13.8807849884033,13.8987941741943,13.9168500900269,13.9349536895752,13.9531030654907,13.9715538024902,13.9980592727661,14.0246648788452,14.0513725280762,14.0781812667847,14.1050930023193,14.1321077346802,14.1592264175415,14.1864490509033,14.2137765884399,14.2412090301514,14.2687492370605,14.2963943481445,14.3241481781006,14.3520088195801,14.379979133606,14.4080581665039,14.4338226318359,14.4567985534668,14.47984790802,14.5029706954956,14.5261678695679,14.5494394302368,14.5727853775024,14.5962057113647,14.6197023391724,14.643274307251,14.6669225692749,14.6906480789185,14.7144498825073,14.7383279800415,14.7622852325439,14.786319732666,14.810432434082,14.8346242904663,14.8588953018188,14.8832454681396,14.907675743103,14.9321870803833,14.9567785263062,14.9814510345459,15.0062046051025,15.0310411453247,15.0559597015381,15.0809602737427,15.1060447692871,15.1312131881714,15.1564645767212,15.1818008422852,15.2072219848633,15.2237424850464,15.2236461639404,15.2235517501831,15.2234554290771,15.2233572006226,15.2232627868652,15.2231645584106,15.2230682373047,15.2229747772217,15.2228775024414,15.2227821350098,15.2226877212524,15.2225875854492,15.2224931716919,15.222393989563,15.2223043441772,15.2222080230713,15.2221097946167,15.2220134735107,15.2219171524048,15.2218208312988,15.2217245101929,15.2216300964355,15.2215337753296,15.2214384078979,15.2213411331177,15.2212448120117,15.2211465835571,15.2210531234741,15.2209587097168,15.2208604812622,15.2207660675049,15.2206697463989,15.2205724716187,15.2204761505127,15.2203798294067,15.2202863693237,15.2201900482178,15.2200927734375,15.2199964523315,15.2199001312256,15.2198038101196,15.2197103500366,15.2196130752563,15.2195167541504,15.2194204330444,15.2193241119385,15.2192277908325,15.2191333770752,15.2190370559692,15.2189426422119,15.2188444137573,15.2187480926514,15.218653678894,15.2185544967651,15.2184600830078,15.2183685302734,15.2182693481445,15.2181749343872,15.218074798584,15.2179803848267,15.2178859710693,15.2177896499634,15.2176952362061,15.2175989151001,15.2175016403198,15.2174053192139,15.2173070907593,15.217212677002,15.2171201705933,15.21702003479,15.2169256210327,15.2168312072754,15.2167339324951,15.2166376113892,15.2165384292603,15.2164468765259,15.2163505554199,15.2162532806396,15.2161588668823,15.2160625457764,15.2159643173218,15.2158699035645,15.2157745361328,15.2156801223755,15.2155838012695,15.2154846191406,15.2153902053833,15.215295791626,15.2151956558228,15.2151050567627,15.2150058746338,15.2149095535278,15.2148170471191,15.2147169113159,15.2146215438843,15.2145299911499,15.214430809021,15.214334487915,15.2142391204834,15.2141427993774,15.2140464782715,15.2139492034912,15.2138557434082,15.2137613296509,15.2136640548706,15.2135677337646,15.2134704589844,15.2133741378784,15.2132797241211,15.2131853103638,15.2130899429321,15.2129936218262,15.2128963470459,15.2128000259399,15.2127027511597,15.2126083374023,15.2125158309937,15.2124156951904,15.2123203277588,15.2122278213501,15.2121276855469,15.2120323181152,15.2119340896606,15.211841583252,15.2117462158203,15.2116498947144,15.2115535736084,15.2114582061768,15.2113609313965,15.2112674713135,15.2111682891846,15.2110738754272,15.2109804153442,15.2108812332153,14.9851675033569,14.9308385848999,14.8769044876099,14.8233804702759,14.7702665328979,14.7175312042236,14.6651706695557,14.6131820678711,14.5615606307983,14.5103015899658,14.4594030380249,14.4088611602783,14.3586702346802,14.3088283538818,14.2593336105347,14.2101802825928,14.1613550186157,14.1593627929688,14.1589374542236,14.1585130691528,14.1580877304077,14.0037508010864,13.9378509521484,13.8725681304932
12.1414890289307,12.1431884765625,12.1448879241943,12.1465873718262,12.1482877731323,12.1499891281128,12.1516904830933,12.1533918380737,12.1550941467285,12.1567974090576,12.1585006713867,12.1602048873901,12.1619091033936,12.163613319397,12.1653184890747,12.1670246124268,12.1687307357788,12.1704378128052,12.1721448898315,12.1738519668579,12.1755599975586,12.1772689819336,12.1789779663086,12.1806879043579,12.1823978424072,12.1841077804565,12.1858186721802,12.1929159164429,12.2020168304443,12.2111301422119,12.2202577590942,12.2293996810913,12.2385540008545,12.2477226257324,12.2569055557251,12.2661018371582,12.2753114700317,12.28453540802,12.2937726974487,12.3030242919922,12.3122901916504,12.321569442749,12.3308629989624,12.3401708602905,12.3494920730591,12.3588285446167,12.3681783676147,12.3775415420532,12.3869199752808,12.396312713623,12.4057188034058,12.4151401519775,12.4245758056641,12.434024810791,12.443489074707,12.4529676437378,12.4624605178833,12.4719676971436,12.4814891815186,12.4910259246826,12.5005769729614,12.510142326355,12.5197229385376,12.529317855835,12.5389270782471,12.5485515594482,12.5581912994385,12.5678453445435,12.5775136947632,12.587197303772,12.5968961715698,12.6066102981567,12.6163387298584,12.6260824203491,12.6358413696289,12.6456146240234,12.6554040908813,12.665207862854,12.6750268936157,12.6848621368408,12.6947116851807,12.7045764923096,12.7144575119019,12.7243528366089,12.7342643737793,12.7417688369751,12.7474479675293,12.7531328201294,12.7588224411011,12.7645177841187,12.7702169418335,12.7759227752686,12.7816324234009,12.7873477935791,12.7930679321289,12.7987928390503,12.8045234680176,12.8102588653564,12.8159999847412,12.8217458724976,12.8274974822998,12.8332538604736,12.839015007019,12.8447818756104,12.8505535125732,12.8563299179077,12.8621120452881,12.8678998947144,12.8736925125122,12.8794898986816,12.885293006897,12.9593448638916,13.0683078765869,13.1652879714966,13.1814870834351,13.1977262496948,13.2140054702759,13.2303247451782,13.2466850280762,13.2630853652954,13.2795267105103,13.2960081100464,13.3125314712524,13.3290948867798,13.3457002639771,13.3623466491699,13.3790349960327,13.3957653045654,13.4125366210938,13.4293508529663,13.4462070465088,13.4631052017212,13.4800462722778,13.4970302581787,13.5140562057495,13.5311260223389,13.5482387542725,13.5653944015503,13.5825939178467,13.5998373031616,13.6171245574951,13.6344556808472,13.6518306732178,13.6692504882812,13.6867141723633,13.7042236328125,13.7217769622803,13.7393751144409,13.7570190429688,13.7747087478638,13.7924432754517,13.8102235794067,13.8280506134033,13.8459224700928,13.863842010498,13.8818063735962,13.8998184204102,13.9178771972656,13.9359827041626,13.960391998291,13.9868545532227,14.0134181976318,14.0400829315186,14.0668487548828,14.0937166213989,14.1206884384155,14.1477632522583,14.1749410629272,14.2022247314453,14.2296133041382,14.2571077346802,14.2847080230713,14.3124160766602,14.3402318954468,14.3681554794312,14.3910503387451,14.4138898849487,14.4368028640747,14.4597883224487,14.4828472137451,14.5059795379639,14.5291862487793,14.5524673461914,14.5758228302002,14.59925365448,14.6227598190308,14.6463422775269,14.6700000762939,14.6937351226807,14.7175464630127,14.7414360046387,14.7654027938843,14.7894468307495,14.813570022583,14.8377723693848,14.8620538711548,14.8864145278931,14.9108552932739,14.9353761672974,14.9599781036377,14.9846611022949,15.0094261169434,15.034273147583,15.0592021942139,15.0842142105103,15.1093091964722,15.1118078231812,15.1117115020752,15.1116170883179,15.1115226745605,15.1114273071289,15.1113328933716,15.1112403869629,15.1111459732056,15.1110496520996,15.1109533309937,15.1108598709106,15.1107654571533,15.1106691360474,15.1105766296387,15.11048412323,15.1103858947754,15.1102914810181,15.1101961135864,15.1101016998291,15.1100072860718,15.1099128723145,15.1098203659058,15.1097259521484,15.1096286773682,15.1095361709595,15.1094379425049,15.1093444824219,15.1092529296875,15.1091575622559,15.1090631484985,15.1089687347412,15.1088724136353,15.1087779998779,15.1086807250977,15.1085901260376,15.1084976196289,15.1083993911743,15.1083040237427,15.108211517334,15.1081142425537,15.1080226898193,15.1079254150391,15.1078329086304,15.107738494873,15.1076412200928,15.1075487136841,15.1074542999268,15.1073598861694,15.1072673797607,15.1071701049805,15.1070756912231,15.1069812774658,15.1068859100342,15.1067895889282,15.1066989898682,15.1066036224365,15.1065092086792,15.1064119338989,15.1063175201416,15.1062250137329,15.1061277389526,15.1060371398926,15.1059446334839,15.1058464050293,15.1057529449463,15.1056547164917,15.1055612564087,15.1054668426514,15.105372428894,15.1052799224854,15.1051864624023,15.1050891876221,15.1049947738647,15.1048984527588,15.1048078536987,15.1047143936157,15.1046180725098,15.1045227050781,15.1044282913208,15.1043310165405,15.1042385101318,15.1041440963745,15.1040506362915,15.1039581298828,15.1038608551025,15.1037645339966,15.1036710739136,15.1035747528076,15.1034841537476,15.1033868789673,15.1032943725586,15.1032009124756,15.1031036376953,15.103009223938,15.1029148101807,15.1028213500977,15.1027269363403,15.1026315689087,15.1025371551514,15.1024436950684,15.1023464202881,15.1022539138794,15.1021614074707,15.1020641326904,15.1019716262817,15.1018743515015,15.1017799377441,15.1016864776611,15.1015939712524,15.1014986038208,15.1014041900635,15.1013088226318,15.1012144088745,15.1011171340942,15.1010236740112,15.1009330749512,15.1008358001709,15.1007413864136,15.1006488800049,15.1005516052246,15.1004581451416,15.1003608703613,15.1002702713013,15.1001758575439,15.1000785827637,15.0999851226807,15.099892616272,15.0997953414917,15.0996999740601,15.0996074676514,15.0995140075684,15.099419593811,15.0993223190308,15.0992307662964,15.0991334915161,15.0990371704102,15.0989484786987,14.930908203125,14.876974105835,14.8234281539917,14.7703113555908,14.7175760269165,14.6652154922485,14.6132259368896,14.5616044998169,14.5103454589844,14.4594469070435,14.4089040756226,14.3587131500244,14.3088731765747,14.2593784332275,14.2102251052856,14.1736354827881,14.173210144043,14.1727848052979,14.1723613739014,14.1719369888306,14.1715135574341,14.1710901260376,13.913516998291
12.1368446350098,12.138542175293,12.1402397155762,12.141939163208,12.1436376571655,12.1453380584717,12.1470375061035,12.1487379074097,12.1504392623901,12.1521406173706,12.1538429260254,12.1555452346802,12.1572484970093,12.1589517593384,12.1606559753418,12.1623601913452,12.1640653610229,12.1657705307007,12.1674766540527,12.1691827774048,12.1708889007568,12.1725969314575,12.1743040084839,12.1760129928589,12.1777210235596,12.1794309616089,12.1811399459839,12.1828498840332,12.1845607757568,12.1862716674805,12.1893138885498,12.1984090805054,12.2075176239014,12.2166395187378,12.225775718689,12.2349252700806,12.2440881729126,12.2532653808594,12.2624559402466,12.2716608047485,12.2808790206909,12.290111541748,12.2993574142456,12.3086175918579,12.3178911209106,12.3271789550781,12.3364810943604,12.3457975387573,12.3551273345947,12.3644714355469,12.3738298416138,12.3832025527954,12.3925895690918,12.4019899368286,12.4114055633545,12.4208345413208,12.4302787780762,12.4397373199463,12.4492101669312,12.4586973190308,12.4681987762451,12.4777145385742,12.4872455596924,12.4967908859253,12.5063505172729,12.5159244537354,12.5255136489868,12.5351181030273,12.5447368621826,12.5543699264526,12.5640182495117,12.5736808776855,12.5833587646484,12.5930519104004,12.6027593612671,12.6124820709229,12.6222200393677,12.6319723129272,12.6417398452759,12.6515235900879,12.6613216400146,12.6711349487305,12.6809635162354,12.6908073425293,12.700665473938,12.7105407714844,12.7204303741455,12.7273168563843,12.7329835891724,12.738655090332,12.7443323135376,12.7500143051147,12.7557010650635,12.7613925933838,12.76708984375,12.7727918624878,12.7784996032715,12.7842121124268,12.7899293899536,12.7956514358521,12.8013792037964,12.8071126937866,12.8128499984741,12.8185930252075,12.8243417739868,12.8300952911377,12.8358535766602,12.8416175842285,12.8473863601685,12.8531608581543,12.8589401245117,12.8647241592407,12.8705139160156,12.8763084411621,12.9112100601196,13.0193614959717,13.129340171814,13.1824083328247,13.1986494064331,13.2149314880371,13.2312526702881,13.2476148605347,13.2640180587769,13.2804613113403,13.2969455718994,13.3134708404541,13.3300371170044,13.3466444015503,13.3632936477661,13.3799839019775,13.3967161178589,13.4134902954102,13.4303064346313,13.4471654891968,13.4640665054321,13.4810094833374,13.4979953765869,13.5150241851807,13.532096862793,13.5492115020752,13.566370010376,13.5835723876953,13.6008176803589,13.6181077957153,13.635440826416,13.6528186798096,13.670241355896,13.687707901001,13.7052192687988,13.7227754592896,13.7403764724731,13.7580223083496,13.7757148742676,13.7934522628784,13.8112354278564,13.8290634155273,13.8469390869141,13.864860534668,13.8828287124634,13.900842666626,13.9229278564453,13.9492483139038,13.9756689071655,14.0021896362305,14.0288114547729,14.055534362793,14.0823593139648,14.1092872619629,14.1363182067871,14.1634531021118,14.190691947937,14.218035697937,14.2454853057861,14.2730407714844,14.3007040023804,14.3258972167969,14.3485307693481,14.3712358474731,14.3940124511719,14.416862487793,14.4397840499878,14.462779045105,14.4858474731445,14.5089902877808,14.5322065353394,14.5554971694946,14.5788621902466,14.6023025512695,14.6258192062378,14.6494112014771,14.6730785369873,14.6968240737915,14.7206449508667,14.7445449829102,14.7685213088989,14.7925758361816,14.8167095184326,14.8409214019775,14.865213394165,14.8895845413208,14.9140357971191,14.9385671615601,14.9631795883179,14.9878740310669,15.0015983581543,15.001503944397,15.0014114379883,15.0013160705566,15.0012254714966,15.0011310577393,15.0010385513306,15.0009469985962,15.0008506774902,15.0007572174072,15.0006666183472,15.0005693435669,15.0004787445068,15.0003871917725,15.0002918243408,15.0001993179321,15.0001039505005,15.0000114440918,14.9999198913574,14.9998273849487,14.9997329711914,14.9996423721313,14.9995450973511,14.9994525909424,14.9993572235107,14.9992647171021,14.999174118042,14.999080657959,14.9989862442017,14.9988956451416,14.9987993240356,14.998706817627,14.9986124038696,14.9985218048096,14.9984283447266,14.9983339309692,14.9982404708862,14.9981479644775,14.9980525970459,14.9979600906372,14.9978685379028,14.9977760314941,14.9976816177368,14.9975881576538,14.9974946975708,14.9974021911621,14.9973068237305,14.997218132019,14.9971218109131,14.9970302581787,14.9969358444214,14.9968404769897,14.9967489242554,14.9966592788696,14.9965620040894,14.9964723587036,14.9963750839233,14.9962844848633,14.996190071106,14.9960947036743,14.9960060119629,14.9959144592285,14.9958171844482,14.9957265853882,14.9956293106079,14.9955368041992,14.9954452514648,14.9953527450562,14.9952592849731,14.9951667785645,14.9950714111328,14.9949779510498,14.9948835372925,14.9947900772095,14.994701385498,14.9946060180664,14.9945135116577,14.9944219589233,14.9943265914917,14.9942321777344,14.9941387176514,14.9940481185913,14.9939546585083,14.9938611984253,14.993766784668,14.9936752319336,14.993579864502,14.9934911727905,14.9933938980103,14.9933032989502,14.9932098388672,14.9931144714355,14.9930219650269,14.9929256439209,14.9928369522095,14.9927444458008,14.9926490783691,14.9925575256348,14.9924631118774,14.9923677444458,14.9922761917114,14.9921836853027,14.9920902252197,14.992000579834,14.9919033050537,14.991810798645,14.9917192459106,14.9916219711304,14.9915332794189,14.9914379119873,14.9913463592529,14.9912528991699,14.9911584854126,14.9910650253296,14.9909734725952,14.9908809661865,14.9907875061035,14.9906921386719,14.9906005859375,14.9905071258545,14.9904136657715,14.9903230667114,14.9902296066284,14.9901361465454,14.9900417327881,14.9899473190308,14.9898548126221,14.9897613525391,14.9896697998047,14.989577293396,14.9894857406616,14.9893884658813,14.989296913147,14.9892015457153,14.9891080856323,14.9890213012695,14.9889240264893,14.9888305664062,14.9887399673462,14.9886436462402,14.8770437240601,14.8234968185425,14.7703561782837,14.7176198959351,14.6652593612671,14.6132698059082,14.5616474151611,14.5103893280029,14.4594898223877,14.4089469909668,14.3587579727173,14.3089179992676,14.2594232559204,14.210262298584,14.1901607513428,14.1896886825562,14.1892156600952,14.1887426376343,14.1882696151733,14.1877965927124,14.1873235702515,14.1868515014648
12.1322031021118,12.1338996887207,12.1355962753296,12.1372938156128,12.138991355896,12.1406898498535,12.142388343811,12.1440877914429,12.145788192749,12.1474876403809,12.1491889953613,12.1508903503418,12.1525917053223,12.1542940139771,12.1559963226318,12.1576995849609,12.15940284729,12.1611070632935,12.1628112792969,12.1645164489746,12.1662216186523,12.1679277420044,12.1696348190308,12.1713409423828,12.1730489730835,12.1747570037842,12.1764650344849,12.1781740188599,12.1798830032349,12.1815929412842,12.1833028793335,12.1850137710571,12.1867256164551,12.1884365081787,12.194803237915,12.2039070129395,12.21302318573,12.2221536636353,12.2312984466553,12.2404556274414,12.2496271133423,12.2588129043579,12.268012046814,12.2772245407104,12.2864513397217,12.2956914901733,12.3049459457397,12.3142147064209,12.3234968185425,12.3327932357788,12.3421039581299,12.3514289855957,12.360767364502,12.3701200485229,12.3794870376587,12.3888683319092,12.3982629776001,12.4076728820801,12.4170970916748,12.4265356063843,12.4359874725342,12.4454545974731,12.4549360275269,12.4644317626953,12.4739427566528,12.4834671020508,12.4930067062378,12.5025606155396,12.5121297836304,12.5217123031616,12.5313110351562,12.5409231185913,12.5505504608154,12.5601930618286,12.5698499679565,12.5795221328735,12.5892095565796,12.5989112854004,12.6086273193359,12.6183595657349,12.6281061172485,12.6378679275513,12.6476449966431,12.6574373245239,12.6672439575195,12.6770668029785,12.6869049072266,12.6967573165894,12.7066259384155,12.7128973007202,12.7185516357422,12.7242107391357,12.7298746109009,12.7355432510376,12.7412176132202,12.7468967437744,12.7525806427002,12.7582693099976,12.7639636993408,12.76966381073,12.7753677368164,12.7810773849487,12.7867918014526,12.7925119400024,12.7982368469238,12.8039665222168,12.8097019195557,12.8154420852661,12.8211879730225,12.8269386291504,12.8326940536499,12.8384552001953,12.8442211151123,12.8499917984009,12.8557682037354,12.8615503311157,12.8673372268677,12.8731288909912,12.9707803726196,13.0799360275269,13.1833295822144,13.1995735168457,13.2158575057983,13.2321815490723,13.2485456466675,13.2649507522583,13.2813959121704,13.2978830337524,13.3144102096558,13.330979347229,13.3475885391235,13.3642406463623,13.3809328079224,13.3976678848267,13.4144439697266,13.4312629699707,13.4481239318848,13.4650268554688,13.481972694397,13.4989614486694,13.5159931182861,13.5330677032471,13.5501852035522,13.5673456192017,13.5845508575439,13.6017990112305,13.6190910339355,13.6364269256592,13.6538076400757,13.6712322235107,13.6887006759644,13.7062149047852,13.7237730026245,13.7413768768311,13.7590265274048,13.7767200469971,13.7944602966309,13.8122463226318,13.830078125,13.8479557037354,13.8658800125122,13.8856639862061,13.9118432998657,13.9381227493286,13.9645004272461,13.9909791946411,14.0175580978394,14.0442390441895,14.0710201263428,14.0979042053223,14.1248922348022,14.1519832611084,14.1791772842407,14.2064771652222,14.2338819503784,14.2613306045532,14.2837610244751,14.3062610626221,14.3288326263428,14.3514757156372,14.3741903305054,14.3969764709473,14.4198350906372,14.4427671432495,14.4657716751099,14.4888496398926,14.5120010375977,14.5352268218994,14.5585279464722,14.5819025039673,14.6053533554077,14.6288785934448,14.6524810791016,14.6761589050293,14.6999139785767,14.7237453460693,14.747654914856,14.7716417312622,14.7957067489624,14.8198499679565,14.8440723419189,14.8683748245239,14.8927564620972,14.8928937911987,14.8928003311157,14.892707824707,14.892617225647,14.8925275802612,14.8924350738525,14.8923416137695,14.8922491073608,14.8921594619751,14.8920640945435,14.8919715881348,14.891884803772,14.891791343689,14.8917007446289,14.8916053771973,14.8915138244629,14.8914232254028,14.8913278579712,14.8912391662598,14.8911485671997,14.8910551071167,14.8909645080566,14.890869140625,14.8907794952393,14.8906869888306,14.8905954360962,14.8905048370361,14.8904132843018,14.8903179168701,14.8902273178101,14.8901338577271,14.8900470733643,14.8899555206299,14.8898601531982,14.8897695541382,14.8896780014038,14.8895835876465,14.8894920349121,14.8894014358521,14.8893117904663,14.8892183303833,14.8891258239746,14.8890342712402,14.8889427185059,14.8888483047485,14.8887605667114,14.8886651992798,14.8885746002197,14.8884830474854,14.8883895874023,14.8882970809937,14.8882074356079,14.8881168365479,14.8880252838135,14.8879318237305,14.8878393173218,14.8877477645874,14.8876543045044,14.88756275177,14.8874702453613,14.8873805999756,14.8872890472412,14.8871955871582,14.8871030807495,14.8870134353638,14.8869228363037,14.8868312835693,14.8867378234863,14.886646270752,14.8865537643433,14.8864603042603,14.8863687515259,14.8862819671631,14.8861865997314,14.8860950469971,14.8860015869141,14.8859100341797,14.8858194351196,14.885724067688,14.8856363296509,14.8855457305908,14.8854503631592,14.8853588104248,14.8852672576904,14.8851737976074,14.8850841522217,14.8849935531616,14.8849020004272,14.8848104476929,14.8847169876099,14.8846254348755,14.8845319747925,14.8844394683838,14.884352684021,14.8842582702637,14.8841667175293,14.8840761184692,14.8839807510376,14.8838911056519,14.8837995529175,14.8837080001831,14.883617401123,14.8835229873657,14.883430480957,14.8833408355713,14.8832454681396,14.8831577301025,14.8830642700195,14.8829727172852,14.8828821182251,14.8827877044678,14.8826961517334,14.8826055526733,14.882513999939,14.8824243545532,14.8823289871216,14.8822374343872,14.8821477890015,14.8820524215698,14.8819627761841,14.8818740844727,14.8817796707153,14.8816890716553,14.8815946578979,14.8815031051636,14.8814125061035,14.8813180923462,14.8812294006348,14.881139755249,14.8810443878174,14.8809547424316,14.880859375,14.8807678222656,14.8806810379028,14.8805866241455,14.8804950714111,14.8804054260254,14.8803100585938,14.880220413208,14.8801250457764,14.8800373077393,14.8771409988403,14.8235664367676,14.7704029083252,14.7176647186279,14.66530418396,14.6133146286011,14.5616912841797,14.5104322433472,14.4595327377319,14.4089918136597,14.3588037490845,14.3089637756348,14.2594680786133,14.222149848938,14.2216749191284,14.2211999893188,14.2207250595093,14.2202501296997,14.2197751998901,14.2193002700806,14.218825340271,14.2183504104614
12.1275653839111,12.1292600631714,12.130955696106,12.1326522827148,12.1343488693237,12.1360454559326,12.1377429962158,12.1394414901733,12.1411399841309,12.1428384780884,12.1445379257202,12.1462383270264,12.1479377746582,12.1496391296387,12.1513404846191,12.1530418395996,12.1547441482544,12.1564474105835,12.1581506729126,12.1598539352417,12.1615581512451,12.1632633209229,12.1649684906006,12.1666736602783,12.1683797836304,12.1700859069824,12.1717929840088,12.1735010147095,12.1752090454102,12.1769170761108,12.1786260604858,12.1803359985352,12.1820459365845,12.1837558746338,12.1854667663574,12.1871786117554,12.1888904571533,12.1912002563477,12.2002983093262,12.2094097137451,12.2185344696045,12.2276735305786,12.2368249893188,12.2459917068481,12.2551717758179,12.264365196228,12.2735719680786,12.2827939987183,12.292028427124,12.3012771606445,12.3105401992798,12.3198175430298,12.3291082382202,12.3384132385254,12.3477325439453,12.3570652008057,12.3664121627808,12.3757734298706,12.3851490020752,12.3945388793945,12.4039430618286,12.4133605957031,12.4227933883667,12.432240486145,12.4417018890381,12.4511775970459,12.4606676101685,12.4701719284058,12.4796915054321,12.4892253875732,12.4987735748291,12.5083360671997,12.5179138183594,12.5275058746338,12.5371122360229,12.5467338562012,12.5563707351685,12.5660219192505,12.5756883621216,12.5853691101074,12.5950651168823,12.604775428772,12.6145009994507,12.6242418289185,12.6339979171753,12.6437692642212,12.6535549163818,12.6633567810059,12.6731729507446,12.6830043792725,12.6928520202637,12.6985111236572,12.7041521072388,12.7097978591919,12.7154493331909,12.7211055755615,12.7267665863037,12.7324323654175,12.7381038665771,12.7437801361084,12.7494621276855,12.75514793396,12.7608394622803,12.7665357589722,12.77223777771,12.7779445648193,12.7836561203003,12.7893733978271,12.7950954437256,12.8008222579956,12.8065547943115,12.812292098999,12.8180351257324,12.8237829208374,12.829535484314,12.8352937698364,12.8410568237305,12.8468255996704,12.8525991439819,12.8583784103394,12.8641624450684,12.9225606918335,13.0309028625488,13.141077041626,13.200496673584,13.2167835235596,13.2331094741821,13.2494764328003,13.2658834457397,13.2823314666748,13.2988204956055,13.3153505325317,13.3319215774536,13.3485336303711,13.3651866912842,13.3818826675415,13.3986196517944,13.4153985977173,13.4322195053101,13.4490823745728,13.4659881591797,13.4829368591309,13.499927520752,13.5169610977173,13.5340385437012,13.551157951355,13.5683212280273,13.5855293273926,13.6027793884277,13.6200742721558,13.6374130249023,13.6547956466675,13.6722221374512,13.6896944046021,13.7072105407715,13.7247724533081,13.7423782348633,13.7600297927856,13.7777271270752,13.7954692840576,13.8132572174072,13.8310918807983,13.8489723205566,13.8746385574341,13.9007768630981,13.9270143508911,13.953351020813,13.9797868728638,14.0063228607178,14.0329608917236,14.0596990585327,14.0865411758423,14.1134843826294,14.140531539917,14.1676816940308,14.1949367523193,14.2195730209351,14.2418718338013,14.2642402648926,14.2866792678833,14.3091888427734,14.3317699432373,14.3544216156006,14.3771457672119,14.399941444397,14.4228096008301,14.4457511901855,14.4687652587891,14.4918527603149,14.5150136947632,14.5382499694824,14.561559677124,14.5849447250366,14.6084051132202,14.6319398880005,14.6555519104004,14.6792402267456,14.7030048370361,14.7268466949463,14.7507658004761,14.7747631072998,14.7858428955078,14.7857532501221,14.7856616973877,14.7855701446533,14.7854833602905,14.7853908538818,14.7852993011475,14.7852096557617,14.7851181030273,14.7850275039673,14.7849407196045,14.7848472595215,14.7847576141357,14.7846660614014,14.7845735549927,14.7844858169556,14.7843923568726,14.7843036651611,14.7842121124268,14.784122467041,14.7840337753296,14.7839403152466,14.7838487625122,14.7837600708008,14.783670425415,14.7835788726807,14.7834873199463,14.7833967208862,14.7833089828491,14.7832136154175,14.7831249237061,14.7830381393433,14.7829456329346,14.7828550338745,14.7827615737915,14.7826738357544,14.78258228302,14.782488822937,14.7824039459229,14.7823123931885,14.7822189331055,14.782130241394,14.782036781311,14.7819471359253,14.7818603515625,14.7817668914795,14.7816772460938,14.781587600708,14.7814960479736,14.7814054489136,14.7813110351562,14.7812261581421,14.781135559082,14.7810411453247,14.7809524536133,14.7808628082275,14.7807693481445,14.7806797027588,14.780590057373,14.7805013656616,14.7804098129272,14.7803182601929,14.7802286148071,14.7801370620728,14.7800455093384,14.7799587249756,14.7798643112183,14.7797756195068,14.7796859741211,14.7795925140381,14.7795028686523,14.7794141769409,14.7793226242065,14.7792329788208,14.7791414260864,14.7790498733521,14.7789621353149,14.7788686752319,14.7787809371948,14.7786922454834,14.7785997390747,14.7785081863403,14.778416633606,14.7783260345459,14.7782363891602,14.7781467437744,14.7780570983887,14.7779674530029,14.7778739929199,14.7777862548828,14.7776908874512,14.7776012420654,14.7775163650513,14.7774219512939,14.7773323059082,14.7772417068481,14.7771492004395,14.777060508728,14.7769680023193,14.7768793106079,14.7767915725708,14.7766971588135,14.7766075134277,14.7765188217163,14.776424407959,14.7763357162476,14.7762460708618,14.7761545181274,14.7760667800903,14.7759742736816,14.7758836746216,14.7757940292358,14.7757034301758,14.7756147384644,14.7755222320557,14.7754306793213,14.7753419876099,14.7752494812012,14.7751598358154,14.7750730514526,14.7749786376953,14.7748908996582,14.7747974395752,14.7747058868408,14.7746181488037,14.7745246887207,14.7744388580322,14.7743492126465,14.7742547988892,14.7741661071777,14.774073600769,14.7739839553833,14.7738943099976,14.7738027572632,14.7737150192261,14.7736234664917,14.7735300064087,14.7734422683716,14.7733478546143,14.7732601165771,14.7731714248657,14.773078918457,14.7729911804199,14.7728996276855,14.7728071212769,14.770471572876,14.7177095413208,14.6653480529785,14.6133584976196,14.5617351531982,14.5104761123657,14.4595794677734,14.4090385437012,14.3588495254517,14.3090085983276,14.2595081329346,14.2538061141968,14.2533292770386,14.2528524398804,14.2523746490479,14.2518978118896,14.2514209747314,14.2509431838989,14.2504596710205,14.2499771118164
12.1229314804077,12.1246252059937,12.1263189315796,12.1280136108398,12.1297092437744,12.131404876709,12.1331014633179,12.1347980499268,12.13649559021,12.1381931304932,12.1398906707764,12.1415891647339,12.1432886123657,12.1449880599976,12.1466884613037,12.1483888626099,12.150089263916,12.1517906188965,12.1534929275513,12.1551952362061,12.1568984985352,12.1586017608643,12.1603050231934,12.1620092391968,12.1637144088745,12.1654195785522,12.1671257019043,12.1688318252563,12.1705379486084,12.1722450256348,12.1739530563354,12.1756610870361,12.1773700714111,12.1790790557861,12.1807889938354,12.1824989318848,12.1842088699341,12.1859197616577,12.1876316070557,12.1893434524536,12.1910562515259,12.1966915130615,12.2057971954346,12.2149171829224,12.2240505218506,12.2331972122192,12.2423582077026,12.2515325546265,12.2607202529907,12.2699222564697,12.2791376113892,12.2883672714233,12.2976112365723,12.3068685531616,12.3161401748657,12.3254251480103,12.3347244262695,12.3440380096436,12.353364944458,12.3627071380615,12.3720626831055,12.3814325332642,12.3908166885376,12.4002151489258,12.4096269607544,12.4190540313721,12.4284954071045,12.4379510879517,12.4474210739136,12.4569053649902,12.4664039611816,12.4759178161621,12.4854459762573,12.4949884414673,12.504545211792,12.5141172409058,12.5237035751343,12.5333042144775,12.5429201126099,12.5525503158569,12.5621957778931,12.5718564987183,12.5815315246582,12.5912208557129,12.600926399231,12.6106462478638,12.6203804016113,12.6301307678223,12.6398954391479,12.6496753692627,12.6594705581665,12.6692810058594,12.6785335540771,12.684157371521,12.6897850036621,12.6954183578491,12.701057434082,12.7067003250122,12.7123489379883,12.7180023193359,12.7236604690552,12.729323387146,12.7349920272827,12.740665435791,12.7463445663452,12.752028465271,12.7577171325684,12.7634105682373,12.7691097259521,12.7748136520386,12.7805223464966,12.7862367630005,12.791955947876,12.797679901123,12.803409576416,12.8091440200806,12.814884185791,12.820629119873,12.8263788223267,12.8321342468262,12.8378944396973,12.8436603546143,12.8494310379028,12.8552074432373,12.874698638916,12.9822359085083,13.0915851593018,13.2014207839966,13.2177095413208,13.234037399292,13.2504072189331,13.2668161392212,13.2832670211792,13.2997579574585,13.3162899017334,13.3328628540039,13.3494777679443,13.3661336898804,13.3828315734863,13.3995714187622,13.4163522720337,13.4331760406494,13.4500417709351,13.4669494628906,13.4839000701904,13.5008935928345,13.5179300308228,13.5350093841553,13.552131652832,13.5692977905273,13.5865077972412,13.6037607192993,13.621057510376,13.6383981704712,13.6557836532593,13.6732139587402,13.6906881332397,13.7082071304321,13.7257709503174,13.7433795928955,13.7610340118408,13.778733253479,13.7964782714844,13.8142690658569,13.8376331329346,13.8636322021484,13.8897285461426,13.9159240722656,13.9422178268433,13.9686117172241,13.9951066970825,14.0217008590698,14.048397064209,14.0751943588257,14.1020946502686,14.1290979385376,14.1559600830078,14.1780595779419,14.2002277374268,14.2224655151367,14.2447738647461,14.2671508789062,14.2895994186401,14.3121185302734,14.3347082138062,14.3573694229126,14.3801031112671,14.4029083251953,14.4257860183716,14.4487361907959,14.4717597961426,14.4948568344116,14.5180282592773,14.5412731170654,14.5645933151245,14.5879878997803,14.611457824707,14.6350030899048,14.6586246490479,14.6803216934204,14.680230140686,14.6801404953003,14.6800556182861,14.6799640655518,14.679874420166,14.6797876358032,14.6796941757202,14.6796064376831,14.6795148849487,14.6794281005859,14.6793413162231,14.6792488098145,14.679160118103,14.6790723800659,14.6789789199829,14.6788930892944,14.6788024902344,14.6787128448486,14.6786270141602,14.6785335540771,14.67844581604,14.6783571243286,14.6782674789429,14.6781797409058,14.6780881881714,14.67799949646,14.6779117584229,14.6778182983398,14.6777305603027,14.6776456832886,14.6775531768799,14.6774644851685,14.6773729324341,14.6772832870483,14.6771974563599,14.6771039962769,14.6770191192627,14.6769313812256,14.6768379211426,14.6767501831055,14.6766586303711,14.6765689849854,14.6764831542969,14.6763935089111,14.6763029098511,14.6762170791626,14.6761236190796,14.6760339736938,14.6759443283081,14.6758546829224,14.6757688522339,14.6756792068481,14.6755895614624,14.6754999160767,14.6754102706909,14.6753206253052,14.6752319335938,14.6751441955566,14.6750545501709,14.6749649047852,14.6748752593994,14.6747856140137,14.6746959686279,14.6746091842651,14.6745166778564,14.6744298934937,14.6743402481079,14.6742477416992,14.6741619110107,14.674072265625,14.6739826202393,14.6738958358765,14.6738033294678,14.6737146377563,14.6736249923706,14.6735343933105,14.6734466552734,14.6733598709106,14.6732683181763,14.6731805801392,14.6730899810791,14.6730012893677,14.6729116439819,14.6728191375732,14.6727361679077,14.672646522522,14.6725540161133,14.6724672317505,14.6723747253418,14.6722850799561,14.6722002029419,14.6721096038818,14.6720199584961,14.671932220459,14.6718406677246,14.6717529296875,14.6716604232788,14.6715755462646,14.6714878082275,14.6713943481445,14.6713056564331,14.6712188720703,14.6711263656616,14.6710367202759,14.6709508895874,14.6708612442017,14.6707715988159,14.6706819534302,14.6705923080444,14.6705045700073,14.6704120635986,14.6703271865845,14.6702346801758,14.6701469421387,14.6700572967529,14.6699676513672,14.6698780059814,14.66978931427,14.6697025299072,14.6696128845215,14.6695203781128,14.6694326400757,14.6693449020386,14.6692523956299,14.6691675186157,14.6690769195557,14.6689872741699,14.6688995361328,14.6688070297241,14.668719291687,14.6686315536499,14.6685419082642,14.6684541702271,14.6683626174927,14.6682729721069,14.6681852340698,14.6680927276611,14.6680040359497,14.6679210662842,14.6678285598755,14.6677389144897,14.667649269104,14.6675596237183,14.6674709320068,14.6673793792725,14.667293548584,14.6672058105469,14.6671152114868,14.6653928756714,14.6134023666382,14.5617790222168,14.5105228424072,14.4596252441406,14.4090843200684,14.3588943481445,14.3090543746948,14.2860832214355,14.2856035232544,14.2851247787476,14.2846431732178,14.2841577529907,14.2836723327637,14.2831878662109,14.2827024459839,14.2822170257568,14.2817316055298
