8.3440408706665,8.34390258789062,8.34376430511475,8.34362602233887,8.34348773956299,8.34334945678711,8.34321117401123,8.34307289123535,8.34293460845947,8.34279632568359,8.34265804290771,8.34251976013184,8.34238147735596,8.34224319458008,8.3421049118042,8.34196662902832,8.34182834625244,8.34169006347656,8.34155178070068,8.3414134979248,8.34127521514893,8.34113788604736,8.34099960327148,8.34086132049561,8.34072303771973,8.34058475494385,8.34044647216797,8.34030818939209,8.34016990661621,8.34003162384033,8.36762428283691,8.39771938323975,8.42803192138672,8.45856380462646,8.48931884765625,8.52029705047607,8.5515022277832,8.5829381942749,8.61460494995117,8.64650630950928,8.67864513397217,8.71102333068848,8.74364376068115,8.77651023864746,8.80962467193604,8.84298896789551,8.87660789489746,8.91048336029053,8.94461822509766,8.9790153503418,9.01367855072021,9.04860973358154,9.08381366729736,9.11929225921631,9.15504837036133,9.191086769104,9.22740936279297,9.2640209197998,9.30092430114746,9.33812236785889,9.37561893463135,9.41341781616211,9.45152282714844,9.4899377822876,9.52866649627686,9.56771278381348,9.60707855224609,9.64676666259766,9.6867847442627,9.72713565826416,9.76782417297363,9.80885410308838,9.8502311706543,9.89195823669434,9.93404006958008,9.97648239135742,11.6199865341187,11.6197938919067,11.6196012496948,11.6194095611572,11.6192169189453,11.5229539871216,11.5125198364258,11.5123291015625,11.5121383666992,11.5119476318359,11.5159711837769,11.525239944458,11.5345230102539,11.5438222885132,11.6172943115234,11.6171016693115,11.6169099807739,11.616717338562,11.6165256500244,11.6163330078125,11.6161403656006,11.615948677063,11.6157560348511,11.6155643463135,11.6153717041016,11.615180015564,11.6149873733521,11.6147956848145,11.6146030426025,11.6144113540649,11.614218711853,11.6140270233154,11.6138343811035,11.6459817886353,11.7045011520386,11.7636098861694,11.8233194351196,11.883638381958,11.9189300537109,11.9205894470215,11.922248840332,11.9239091873169,11.9255695343018,11.9272308349609,11.9288921356201,11.9305543899536,11.9322166442871,11.9338798522949,11.9355430603027,11.9372062683105,11.938871383667,11.9405355453491,11.9422006607056,11.9438667297363,11.9455327987671,11.9471998214722,11.9488668441772,11.9505338668823,11.9522018432617,11.9538707733154,11.9555397033691,11.9572086334229,11.9588785171509,11.9605493545532,11.9622201919556,11.9638910293579,11.9655628204346,11.9672346115112,11.9689073562622,11.9705810546875,11.9722547531128,11.9739284515381,11.9756031036377,11.9772777557373,11.9789533615112,11.9806299209595,11.9823064804077,11.983983039856,11.9856605529785,11.9873380661011,11.9890165328979,11.9906949996948,11.992374420166,11.9940538406372,11.9957342147827,11.9974145889282,11.999095916748,12.0007772445679,12.002459526062,12.0041427612305,12.0058250427246,12.0075092315674,12.0091924667358,12.0108776092529,12.0125617980957,12.0142478942871,12.0159330368042,12.0176191329956,12.0193061828613,12.0209932327271,12.0226812362671,12.0243692398071,12.0260581970215,12.0277471542358,12.0294370651245,12.0311269760132,12.0328178405762,12.0345087051392,12.0362005233765,12.0378923416138,12.0395851135254,12.041277885437,12.0429716110229,12.0446653366089,12.0463600158691,12.0480546951294,12.0497493743896,12.0514459609985,12.0531415939331,12.0548391342163,12.0565357208252,12.0582332611084,12.0599317550659,12.0616302490234,12.0633296966553,12.0650291442871,12.0667295455933,12.0684299468994,12.0701313018799,12.0718326568604,12.0735349655151,12.0752372741699,12.076940536499,12.0786437988281,12.0803480148315,12.082052230835,12.0837574005127,12.0854625701904,12.0871686935425,12.0888748168945,12.0905818939209,12.0922889709473,12.0939970016479,12.0957050323486,12.0974140167236,12.0991230010986,12.1008329391479,12.1025428771973,12.1042537689209,12.1059656143188,12.1076765060425,12.1093893051147,12.111102104187,12.1128149032593,12.1145286560059,12.1162424087524,12.1179571151733,12.1196718215942,12.1213874816895,12.123104095459,12.1248207092285,12.126537322998,12.1282548904419,12.1299724578857,12.1316909790039,12.1334104537964,12.1351299285889,12.1368494033813,12.1385698318481,12.1402912139893,12.1420125961304,12.1437339782715,12.1454563140869,12.1471796035767,12.1489028930664,12.1506271362305,12.1523513793945,12.1540756225586,12.1558017730713,12.1575269699097,12.1592531204224,12.1609802246094,12.1627073287964,12.1644353866577,12.166163444519,12.1678924560547,12.1696214675903,12.1713514328003,12.1730813980103,12.1748123168945,12.1765432357788,12.1782751083374,12.180006980896,12.1817398071289,12.1834735870361,12.185206413269,12.1869411468506,12.1886758804321,12.1904106140137,12.1921463012695,12.1938829421997,12.1956195831299,12.1973562240601,12.1990938186646,12.2008323669434,12.2025709152222,12.204309463501,12.2060499191284,12.2077894210815,12.209529876709,12.2112712860107,12.2130126953125,12.2147550582886,12.2164974212646,12.2255249023438,12.2347316741943,12.2439527511597,12.2531871795654,12.2624359130859,12.2716979980469,12.2809743881226,12.290265083313,12.2995700836182,12.3088884353638,12.3182210922241,12.3275690078735,12.3369293212891,12.3463048934937,12.355694770813,12.3650989532471,12.3745174407959,12.3839502334595,12.3933973312378,12.4028587341309,12.4123344421387,12.4218254089355,12.4313297271729,12.4408493041992,12.4503841400146,12.4599323272705,12.4694957733154,12.4790744781494,12.4886665344238,12.4982748031616,12.5078973770142,12.5175342559814,12.5271863937378,12.5368528366089,12.5465354919434,12.5562324523926,12.5659437179565,12.5756711959839,12.585412979126,12.5951700210571,12.6049423217773,12.6147298812866,12.6245317459106,12.634349822998,12.6441831588745,12.65403175354,12.6638956069946,12.6737747192383,12.683669090271,12.6910076141357,12.6966905593872,12.7023782730103,12.7080717086792,12.7137699127197,12.7194728851318,12.7251815795898,12.7308950424194,12.7366142272949,12.742338180542,12.7480669021606,12.7538013458252,12.7595405578613,12.7652854919434,12.771035194397,12.7767896652222,12.7825498580933,12.7883148193359
8.34402179718018,8.3438835144043,8.34374523162842,8.34360694885254,8.34346866607666,8.34333038330078,8.3431921005249,8.34305381774902,8.34291553497314,8.34277725219727,8.34263896942139,8.34250068664551,8.34236240386963,8.34222412109375,8.34208583831787,8.34194755554199,8.34180927276611,8.34167098999023,8.34153366088867,8.34139537811279,8.34125709533691,8.34111881256104,8.34098052978516,8.34084224700928,8.3407039642334,8.34056568145752,8.34042739868164,8.34028911590576,8.34015083312988,8.340012550354,8.36763381958008,8.39772891998291,8.42804145812988,8.45857429504395,8.48932838439941,8.52030754089355,8.55151271820068,8.58294773101807,8.61461448669434,8.64651679992676,8.67865467071533,8.71103382110596,8.74365520477295,8.77652072906494,8.80963516235352,8.8430004119873,8.87661933898926,8.91049480438232,8.94462966918945,8.97902679443359,9.01368999481201,9.04862117767334,9.08382511138916,9.11930370330811,9.15505981445312,9.1910982131958,9.22742176055908,9.26403331756592,9.30093574523926,9.33813381195068,9.37563133239746,9.41343021392822,9.45153522491455,9.48995018005371,9.52867889404297,9.56772518157959,9.60708999633789,9.64677810668945,9.68679618835449,9.72714710235596,9.76783561706543,9.80886650085449,9.85024261474609,9.89197063446045,9.93405246734619,9.97649478912354,11.6199598312378,11.6197671890259,11.6195755004883,11.6193828582764,11.6191902160645,11.6189985275269,11.6188058853149,11.5189905166626,11.5121126174927,11.5119218826294,11.5117311477661,11.5115404129028,11.5162353515625,11.5255041122437,11.5347881317139,11.5440874099731,11.6168832778931,11.6166906356812,11.6164989471436,11.6163063049316,11.616114616394,11.6159219741821,11.6157302856445,11.6155376434326,11.615345954895,11.6151533126831,11.6149616241455,11.6147689819336,11.614577293396,11.6143846511841,11.6141929626465,11.6140003204346,11.613808631897,11.646017074585,11.704535484314,11.7636461257935,11.8233509063721,11.8836526870728,11.9144926071167,11.9161510467529,11.9178094863892,11.9194679260254,11.9211273193359,11.9227867126465,11.9244470596313,11.9261083602905,11.9277696609497,11.9294309616089,11.9310932159424,11.9327554702759,11.9344186782837,11.9360818862915,11.9377460479736,11.9394111633301,11.9410753250122,11.942741394043,11.9444065093994,11.9460735321045,11.9477396011353,11.9494075775146,11.9510746002197,11.9527425765991,11.9544115066528,11.9560804367065,11.9577503204346,11.9594202041626,11.9610910415649,11.9627618789673,11.9644327163696,11.9661054611206,11.9677772521973,11.9694499969482,11.9711236953735,11.9727973937988,11.9744710922241,11.9761457443237,11.9778213500977,11.9794969558716,11.9811735153198,11.9828500747681,11.9845266342163,11.9862041473389,11.9878826141357,11.9895610809326,11.9912395477295,11.9929189682007,11.9945993423462,11.9962787628174,11.9979600906372,11.999641418457,12.0013227462769,12.003005027771,12.0046882629395,12.0063714981079,12.0080547332764,12.0097389221191,12.0114231109619,12.013108253479,12.0147943496704,12.0164804458618,12.0181665420532,12.0198535919189,12.0215406417847,12.0232286453247,12.0249166488647,12.0266056060791,12.0282955169678,12.0299854278564,12.0316753387451,12.0333662033081,12.0350570678711,12.0367488861084,12.0384407043457,12.0401334762573,12.0418272018433,12.0435209274292,12.0452146530151,12.0469093322754,12.0486040115356,12.0502996444702,12.0519952774048,12.0536918640137,12.0553894042969,12.0570859909058,12.0587844848633,12.0604829788208,12.0621814727783,12.0638809204102,12.065580368042,12.0672807693481,12.0689821243286,12.0706825256348,12.0723848342896,12.0740871429443,12.0757894515991,12.0774927139282,12.0791959762573,12.0809001922607,12.0826053619385,12.0843105316162,12.0860157012939,12.087721824646,12.089427947998,12.0911350250244,12.0928430557251,12.0945510864258,12.0962591171265,12.0979681015015,12.0996780395508,12.1013879776001,12.1030979156494,12.104808807373,12.1065196990967,12.1082315444946,12.1099443435669,12.1116571426392,12.1133699417114,12.1150846481323,12.1167984008789,12.1185131072998,12.120228767395,12.1219444274902,12.1236600875854,12.125376701355,12.1270942687988,12.1288118362427,12.1305303573608,12.132248878479,12.1339673995972,12.135687828064,12.1374073028564,12.1391277313232,12.1408491134644,12.1425704956055,12.1442928314209,12.1460151672363,12.1477384567261,12.1494617462158,12.1511859893799,12.1529102325439,12.1546354293823,12.1563606262207,12.1580867767334,12.1598129272461,12.1615400314331,12.1632680892944,12.1649951934814,12.1667242050171,12.1684532165527,12.1701822280884,12.1719121932983,12.1736421585083,12.1753730773926,12.1771049499512,12.1788368225098,12.1805686950684,12.1823015213013,12.1840353012085,12.1857690811157,12.1875038146973,12.1892385482788,12.1909732818604,12.1927089691162,12.1944456100464,12.1961822509766,12.1979198455811,12.1996574401855,12.2013959884644,12.2031345367432,12.2048740386963,12.2066135406494,12.2083539962769,12.2100944519043,12.2118358612061,12.2135772705078,12.2153196334839,12.2170629501343,12.2220811843872,12.2312822341919,12.2404985427856,12.2497272491455,12.2589712142944,12.2682285308838,12.2774991989136,12.2867851257324,12.2960844039917,12.3053979873657,12.3147249221802,12.3240671157837,12.3334226608276,12.3427934646606,12.3521776199341,12.3615760803223,12.3709888458252,12.3804168701172,12.3898582458496,12.3993139266968,12.408784866333,12.418270111084,12.4277696609497,12.4372835159302,12.4468126296997,12.4563550949097,12.465913772583,12.4754858016968,12.4850730895996,12.4946756362915,12.5042924880981,12.5139236450195,12.52357006073,12.5332317352295,12.5429077148438,12.5525999069214,12.5623054504395,12.5720272064209,12.5817632675171,12.5915145874023,12.6012811660767,12.61106300354,12.6208600997925,12.630672454834,12.6404991149902,12.6503419876099,12.6602001190186,12.6700735092163,12.6767892837524,12.6824588775635,12.6881341934204,12.6938152313232,12.6995000839233,12.7051906585693,12.7108869552612,12.7165870666504,12.7222929000854,12.7280044555664,12.7337207794189,12.7394418716431,12.7451677322388,12.7508993148804,12.7566366195679,12.7623777389526
8.34400272369385,8.34386444091797,8.34372615814209,8.34358787536621,8.34344959259033,8.34331130981445,8.34317302703857,8.3430347442627,8.34289646148682,8.34275817871094,8.34261989593506,8.34248161315918,8.3423433303833,8.34220504760742,8.34206676483154,8.34192943572998,8.3417911529541,8.34165287017822,8.34151458740234,8.34137630462646,8.34123802185059,8.34109973907471,8.34096145629883,8.34082317352295,8.34068489074707,8.34054660797119,8.34040832519531,8.34027004241943,8.34013175964355,8.33999443054199,8.36764335632324,8.39773941040039,8.42805194854736,8.45858383178711,8.48933792114258,8.52031707763672,8.55152320861816,8.58295822143555,8.61462497711182,8.64652633666992,8.67866516113281,8.71104431152344,8.74366569519043,8.77653121948242,8.809645652771,8.84301090240479,8.87662982940674,8.9105052947998,8.94464015960693,8.97903823852539,9.01370143890381,9.04863262176514,9.08383655548096,9.1193151473999,9.15507221221924,9.19111061096191,9.22743320465088,9.26404476165771,9.30094814300537,9.3381462097168,9.37564277648926,9.41344261169434,9.45154762268066,9.48996257781982,9.52869129180908,9.5677375793457,9.60710144042969,9.64678955078125,9.68680763244629,9.72715854644775,9.76784801483154,9.80887794494629,9.85025501251221,9.89198207855225,9.9340648651123,9.97650718688965,11.6199331283569,11.6197414398193,11.6195487976074,11.6193561553955,11.6191644668579,11.618971824646,11.6187791824341,11.6185874938965,11.6183948516846,11.5150299072266,11.5117053985596,11.5115146636963,11.511323928833,11.511134147644,11.5164995193481,11.5257692337036,11.5350542068481,11.5443534851074,11.6164722442627,11.6162805557251,11.6160879135132,11.6158962249756,11.6157035827637,11.6155118942261,11.6153192520142,11.6151275634766,11.6149349212646,11.6147432327271,11.6145505905151,11.6143589019775,11.6141662597656,11.613974571228,11.6137819290161,11.6460514068604,11.7045707702637,11.7636699676514,11.8233633041382,11.8836660385132,11.9100589752197,11.9117155075073,11.9133729934692,11.9150304794312,11.9166879653931,11.9183473587036,11.9200057983398,11.9216651916504,11.9233255386353,11.9249858856201,11.9266471862793,11.9283084869385,11.9299697875977,11.9316320419312,11.933295249939,11.9349584579468,11.9366216659546,11.9382858276367,11.9399509429932,11.9416151046753,11.9432811737061,11.9449472427368,11.9466133117676,11.9482803344727,11.9499473571777,11.9516153335571,11.9532842636108,11.9549531936646,11.9566221237183,11.9582920074463,11.9599618911743,11.9616327285767,11.963303565979,11.9649753570557,11.9666471481323,11.9683198928833,11.9699926376343,11.9716663360596,11.9733400344849,11.9750146865845,11.9766893386841,11.978364944458,11.9800405502319,11.9817171096802,11.9833936691284,11.9850702285767,11.9867486953735,11.9884262084961,11.990104675293,11.9917840957642,11.9934635162354,11.9951438903809,11.9968242645264,11.9985055923462,12.000186920166,12.0018682479858,12.00355052948,12.0052337646484,12.0069169998169,12.0086011886597,12.0102853775024,12.0119695663452,12.0136547088623,12.0153408050537,12.0170269012451,12.0187129974365,12.0204010009766,12.0220880508423,12.0237760543823,12.0254650115967,12.027153968811,12.0288429260254,12.0305328369141,12.0322237014771,12.03391456604,12.035605430603,12.0372972488403,12.038990020752,12.0406827926636,12.0423755645752,12.0440692901611,12.0457639694214,12.0474586486816,12.0491542816162,12.0508499145508,12.0525455474854,12.0542421340942,12.0559396743774,12.0576372146606,12.0593347549438,12.0610332489014,12.0627326965332,12.064432144165,12.0661315917969,12.067831993103,12.0695333480835,12.071234703064,12.0729370117188,12.0746393203735,12.0763416290283,12.0780448913574,12.0797491073608,12.0814533233643,12.0831575393677,12.0848627090454,12.0865688323975,12.0882749557495,12.0899820327759,12.0916891098022,12.0933961868286,12.0951051712036,12.0968132019043,12.0985221862793,12.1002321243286,12.1019420623779,12.1036529541016,12.1053638458252,12.1070747375488,12.1087875366211,12.110499382019,12.1122121810913,12.1139259338379,12.1156396865845,12.1173543930054,12.1190690994263,12.1207847595215,12.1225004196167,12.1242170333862,12.1259336471558,12.1276512145996,12.1293687820435,12.1310873031616,12.1328058242798,12.1345252990723,12.1362447738647,12.1379652023315,12.1396865844727,12.1414070129395,12.1431293487549,12.1448516845703,12.1465740203857,12.1482973098755,12.1500205993652,12.1517448425293,12.1534700393677,12.1551952362061,12.1569204330444,12.1586465835571,12.1603736877441,12.1621007919312,12.1638278961182,12.1655559539795,12.1672849655151,12.1690139770508,12.1707429885864,12.1724729537964,12.1742038726807,12.1759347915649,12.1776666641235,12.1793985366821,12.181131362915,12.1828641891479,12.1845970153809,12.1863317489624,12.1880655288696,12.1898012161255,12.191535949707,12.1932725906372,12.1950092315674,12.1967458724976,12.1984834671021,12.2002210617065,12.2019596099854,12.2036981582642,12.2054376602173,12.2071781158447,12.2089185714722,12.2106590270996,12.2124004364014,12.2141427993774,12.2158851623535,12.2176275253296,12.2193717956543,12.2278356552124,12.2370462417603,12.2462701797485,12.2555084228516,12.264760017395,12.2740259170532,12.2833061218262,12.2926006317139,12.301908493042,12.3112306594849,12.3205671310425,12.3299179077148,12.339282989502,12.3486623764038,12.3580551147461,12.3674631118774,12.3768844604492,12.3863210678101,12.3957719802856,12.405237197876,12.4147167205811,12.4242105484009,12.4337196350098,12.4432430267334,12.4527807235718,12.4623327255249,12.4718999862671,12.481481552124,12.49107837677,12.5006895065308,12.5103158950806,12.5199565887451,12.5296125411987,12.5392827987671,12.5489692687988,12.558669090271,12.5683851242065,12.5781154632568,12.5878620147705,12.5976228713989,12.6073989868164,12.6171894073486,12.6269960403442,12.6368179321289,12.6466550827026,12.6565074920654,12.6626024246216,12.6682596206665,12.6739225387573,12.6795902252197,12.6852626800537,12.6909408569336,12.6966228485107,12.7023115158081,12.7080039978027,12.7137022018433,12.7194061279297,12.7251138687134,12.730827331543,12.7365465164185
8.34398460388184,8.34384632110596,8.34370803833008,8.3435697555542,8.34343147277832,8.34329223632812,8.34315395355225,8.34301567077637,8.3428783416748,8.34274005889893,8.34260177612305,8.34246349334717,8.34232521057129,8.34218692779541,8.34204864501953,8.34191036224365,8.34177207946777,8.34163379669189,8.34149551391602,8.34135723114014,8.34121894836426,8.34108066558838,8.3409423828125,8.34080410003662,8.34066581726074,8.34052753448486,8.34038925170898,8.34025192260742,8.34011363983154,8.33997535705566,8.36765384674072,8.39774894714355,8.42806148529053,8.45859432220459,8.48934841156006,8.5203275680542,8.55153274536133,8.58296871185303,8.6146354675293,8.6465368270874,8.67867565155029,8.71105480194092,8.74367618560791,8.77654266357422,8.80965709686279,8.84302234649658,8.87664127349854,8.9105167388916,8.94465160369873,8.97904872894287,9.01371288299561,9.04864406585693,9.08384799957275,9.1193265914917,9.15508365631104,9.19112205505371,9.22744560241699,9.26405715942383,9.30095958709717,9.33815860748291,9.37565517425537,9.41345500946045,9.45156002044678,9.48997592926025,9.52870464324951,9.5677490234375,9.60711288452148,9.64680099487305,9.68681907653809,9.72717094421387,9.76785945892334,9.8088903427124,9.85026741027832,9.89199447631836,9.93407726287842,9.97651863098145,11.6199073791504,11.6197147369385,11.6195220947266,11.619330406189,11.6191377639771,11.6189451217651,11.6187534332275,11.6185607910156,11.618369102478,11.6181764602661,11.6179838180542,11.5114889144897,11.5112981796265,11.5111074447632,11.5109167098999,11.5107269287109,11.5167646408081,11.5226135253906,11.5224876403809,11.5223608016968,11.522234916687,11.5221080780029,11.5219821929932,11.5218553543091,11.5217313766479,11.5216073989868,11.521484375,11.5352411270142,11.6145238876343,11.6143321990967,11.6141395568848,11.6139478683472,11.6137561798096,11.6460847854614,11.7045879364014,11.7636823654175,11.8233757019043,11.8836784362793,11.9056282043457,11.907283782959,11.9089393615723,11.9105958938599,11.9122524261475,11.9139099121094,11.9155673980713,11.9172258377075,11.9188852310181,11.9205436706543,11.9222040176392,11.9238634109497,11.9255247116089,11.9271850585938,11.9288473129272,11.9305086135864,11.9321708679199,11.9338340759277,11.9354972839355,11.9371614456177,11.9388256072998,11.9404907226562,11.9421558380127,11.9438209533691,11.9454870223999,11.947154045105,11.9488210678101,11.9504890441895,11.9521570205688,11.9538249969482,11.955493927002,11.95716381073,11.958833694458,11.960503578186,11.9621744155884,11.9638452529907,11.9655170440674,11.9671897888184,11.9688625335693,11.9705352783203,11.9722089767456,11.9738826751709,11.9755573272705,11.9772329330444,11.978907585144,11.9805841445923,11.9822607040405,11.9839372634888,11.9856147766113,11.9872922897339,11.9889707565308,11.9906492233276,11.9923286437988,11.99400806427,11.9956884384155,11.997368812561,11.9990501403809,12.0007314682007,12.0024137496948,12.004096031189,12.0057792663574,12.0074625015259,12.0091466903687,12.0108308792114,12.0125160217285,12.0142011642456,12.015887260437,12.0175733566284,12.0192604064941,12.0209474563599,12.0226354598999,12.0243234634399,12.0260124206543,12.0277013778687,12.0293912887573,12.031081199646,12.032772064209,12.034462928772,12.0361547470093,12.0378465652466,12.0395383834839,12.0412321090698,12.0429248809814,12.0446186065674,12.0463132858276,12.0480079650879,12.0497035980225,12.051399230957,12.0530958175659,12.0547924041748,12.056489944458,12.0581874847412,12.0598859786987,12.0615844726562,12.0632839202881,12.0649833679199,12.0666828155518,12.0683841705322,12.0700845718384,12.0717868804932,12.0734882354736,12.0751905441284,12.0768938064575,12.0785970687866,12.08030128479,12.0820055007935,12.0837106704712,12.0854158401489,12.087121963501,12.088828086853,12.0905351638794,12.0922422409058,12.0939502716064,12.0956583023071,12.0973672866821,12.0990762710571,12.1007862091064,12.1024971008301,12.1042070388794,12.1059188842773,12.107629776001,12.1093425750732,12.1110553741455,12.1127681732178,12.1144819259644,12.1161956787109,12.1179103851318,12.1196250915527,12.1213407516479,12.1230573654175,12.124773979187,12.1264905929565,12.1282081604004,12.1299257278442,12.1316442489624,12.1333637237549,12.1350831985474,12.1368026733398,12.1385231018066,12.1402444839478,12.1419658660889,12.14368724823,12.1454095840454,12.1471328735352,12.1488561630249,12.1505794525146,12.152304649353,12.1540288925171,12.1557540893555,12.1574802398682,12.1592063903809,12.1609334945679,12.1626605987549,12.1643886566162,12.1661167144775,12.1678447723389,12.1695747375488,12.1713037490845,12.1730346679688,12.1747646331787,12.1764965057373,12.1782283782959,12.1799602508545,12.1816930770874,12.1834259033203,12.1851596832275,12.1868934631348,12.1886281967163,12.1903638839722,12.192099571228,12.1938352584839,12.1955718994141,12.1973094940186,12.199047088623,12.2007846832275,12.2025232315063,12.2042627334595,12.2060022354126,12.20774269104,12.2094831466675,12.2112236022949,12.2129650115967,12.2147073745728,12.2164497375488,12.2181930541992,12.2199363708496,12.2243900299072,12.2335958480835,12.2428150177002,12.2520475387573,12.2612943649292,12.2705554962158,12.2798299789429,12.2891187667847,12.2984218597412,12.3077392578125,12.3170700073242,12.3264150619507,12.3357744216919,12.3451480865479,12.3545360565186,12.363938331604,12.3733549118042,12.3827857971191,12.3922309875488,12.4016914367676,12.4111652374268,12.420654296875,12.430157661438,12.4396753311157,12.4492073059082,12.4587545394897,12.468316078186,12.4778919219971,12.4874830245972,12.4970893859863,12.5067100524902,12.5163450241089,12.5259952545166,12.5356607437134,12.5453405380249,12.5550355911255,12.5647459030151,12.5744705200195,12.584210395813,12.5939655303955,12.6037359237671,12.6135215759277,12.6233224868774,12.6331386566162,12.6428070068359,12.6484470367432,12.654091835022,12.6597414016724,12.6653966903687,12.6710567474365,12.676721572876,12.6823921203613,12.6880674362183,12.6937475204468,12.6994333267212,12.7051239013672,12.7108192443848
8.34396553039551,8.34382724761963,8.34368896484375,8.34355068206787,8.34341239929199,8.34327411651611,8.34313583374023,8.34299755096436,8.34285926818848,8.3427209854126,8.34258270263672,8.34244441986084,8.34230613708496,8.34216785430908,8.3420295715332,8.34189128875732,8.34175300598145,8.34161472320557,8.34147644042969,8.34133815765381,8.34119987487793,8.34106159210205,8.34092330932617,8.34078502655029,8.34064674377441,8.34050941467285,8.34037113189697,8.34023284912109,8.34009456634521,8.33995628356934,8.36766338348389,8.39775848388672,8.42807197570801,8.45860385894775,8.48935794830322,8.52033710479736,8.55154323577881,8.58297824859619,8.61464595794678,8.64654731750488,8.67868614196777,8.7110652923584,8.74368667602539,8.7765531539917,8.80966758728027,8.84303283691406,8.87665176391602,8.91052722930908,8.94466304779053,8.97906017303467,9.01372337341309,9.04865550994873,9.08385944366455,9.1193380355835,9.15509510040283,9.19113349914551,9.22745704650879,9.26406860351562,9.30097198486328,9.33817005157471,9.37566757202148,9.41346740722656,9.45157241821289,9.48998832702637,9.52871704101562,9.5677604675293,9.60712432861328,9.64681243896484,9.68683052062988,9.72718238830566,9.76787090301514,9.8089017868042,9.85027885437012,9.89200687408447,9.93408966064453,9.97653102874756,11.6198806762695,11.6196880340576,11.61949634552,11.6193037033081,11.6191110610962,11.6189193725586,11.6187267303467,11.6185340881348,11.6183423995972,11.6181497573853,11.6179580688477,11.6177654266357,11.6175727844238,11.5110816955566,11.5108909606934,11.5107002258301,11.5105104446411,11.5103197097778,11.5101289749146,11.5099382400513,11.5097484588623,11.509557723999,11.5093669891357,11.5091762542725,11.5089864730835,11.5087957382202,11.5086050033569,11.5352697372437,11.6144981384277,11.6143054962158,11.6141138076782,11.6139211654663,11.6137294769287,11.6460971832275,11.7046003341675,11.7636947631836,11.8233880996704,11.8836908340454,11.9012002944946,11.9028549194336,11.9045095443726,11.9061651229858,11.9078207015991,11.9094762802124,11.9111328125,11.9127902984619,11.9144477844238,11.9161052703857,11.917763710022,11.9194231033325,11.9210824966431,11.9227418899536,11.9244022369385,11.9260625839233,11.9277238845825,11.929386138916,11.9310474395752,11.932710647583,11.9343738555908,11.9360370635986,11.9377012252808,11.9393653869629,11.9410305023193,11.9426956176758,11.9443616867065,11.9460277557373,11.9476947784424,11.9493618011475,11.9510297775269,11.9526977539062,11.9543657302856,11.9560356140137,11.9577045440674,11.9593744277954,11.9610452651978,11.9627161026001,11.9643878936768,11.9660596847534,11.9677314758301,11.9694042205811,11.9710779190063,11.9727516174316,11.9744262695312,11.9761009216309,11.9777755737305,11.9794511795044,11.9811277389526,11.9828042984009,11.9844808578491,11.9861583709717,11.9878368377686,11.9895153045654,11.9911937713623,11.9928731918335,11.994553565979,11.9962329864502,11.99791431427,11.9995956420898,12.0012769699097,12.0029592514038,12.0046424865723,12.0063257217407,12.0080089569092,12.009693145752,12.0113773345947,12.0130624771118,12.0147485733032,12.0164337158203,12.018120765686,12.0198078155518,12.0214948654175,12.0231828689575,12.0248708724976,12.0265598297119,12.0282497406006,12.0299386978149,12.0316295623779,12.0333204269409,12.0350112915039,12.0367031097412,12.0383949279785,12.0400876998901,12.0417804718018,12.0434741973877,12.0451688766479,12.0468626022339,12.0485582351685,12.050253868103,12.0519495010376,12.0536460876465,12.0553426742554,12.0570402145386,12.0587377548218,12.0604362487793,12.0621356964111,12.0638341903687,12.0655345916748,12.067234992981,12.0689353942871,12.0706367492676,12.072338104248,12.0740404129028,12.0757427215576,12.0774459838867,12.0791501998901,12.0808544158936,12.082558631897,12.0842638015747,12.0859689712524,12.0876750946045,12.0893821716309,12.0910892486572,12.0927963256836,12.0945043563843,12.096212387085,12.09792137146,12.0996313095093,12.1013412475586,12.1030511856079,12.1047620773315,12.1064739227295,12.1081857681274,12.1098976135254,12.1116104125977,12.1133241653442,12.1150379180908,12.1167516708374,12.1184663772583,12.1201820373535,12.1218976974487,12.1236133575439,12.1253299713135,12.1270475387573,12.1287651062012,12.1304836273193,12.1322021484375,12.1339206695557,12.1356401443481,12.1373605728149,12.1390810012817,12.1408023834229,12.142523765564,12.1442461013794,12.1459684371948,12.1476917266846,12.1494150161743,12.1511392593384,12.1528635025024,12.1545886993408,12.1563138961792,12.1580400466919,12.1597661972046,12.1614933013916,12.1632204055786,12.1649484634399,12.1666765213013,12.1684055328369,12.1701354980469,12.1718654632568,12.1735954284668,12.1753263473511,12.1770572662354,12.1787891387939,12.1805219650269,12.1822547912598,12.1839876174927,12.1857223510742,12.1874561309814,12.189190864563,12.1909265518188,12.1926622390747,12.1943988800049,12.1961355209351,12.1978721618652,12.199610710144,12.2013483047485,12.2030868530273,12.2048263549805,12.2065658569336,12.208306312561,12.2100477218628,12.2117881774902,12.2135305404663,12.2152729034424,12.2170152664185,12.2187585830688,12.2205018997192,12.2222461700439,12.2301473617554,12.2393608093262,12.2485885620117,12.257830619812,12.2670860290527,12.2763557434082,12.2856388092041,12.2949371337891,12.3042488098145,12.3135747909546,12.3229141235352,12.3322687149048,12.3416366577148,12.351019859314,12.3604164123535,12.3698272705078,12.3792533874512,12.388692855835,12.3981475830078,12.4076166152954,12.4170989990234,12.4265975952148,12.4361095428467,12.4456367492676,12.4551782608032,12.4647340774536,12.4743051528931,12.4838905334473,12.4934902191162,12.5031051635742,12.5127353668213,12.5223798751831,12.532039642334,12.5417137145996,12.5514039993286,12.561107635498,12.5708274841309,12.5805616378784,12.590311050415,12.6000757217407,12.6098556518555,12.6196508407593,12.6286964416504,12.6343231201172,12.6399555206299,12.6455926895142,12.6512355804443,12.6568832397461,12.6625356674194,12.6681928634644,12.6738548278809,12.6795225143433,12.6851959228516
8.34394645690918,8.3438081741333,8.34366989135742,8.34353160858154,8.34339332580566,8.34325504302979,8.34311676025391,8.34297847747803,8.34284019470215,8.34270191192627,8.34256362915039,8.34242534637451,8.34228706359863,8.34214878082275,8.34201049804688,8.341872215271,8.34173393249512,8.34159564971924,8.34145736694336,8.34131908416748,8.3411808013916,8.34104251861572,8.34090423583984,8.34076690673828,8.3406286239624,8.34049034118652,8.34035205841064,8.34021377563477,8.34007549285889,8.33993721008301,8.36767292022705,8.39776802062988,8.42808151245117,8.45861339569092,8.4893684387207,8.52034759521484,8.55155372619629,8.58298873901367,8.61465644836426,8.64655780792236,8.67869663238525,8.71107578277588,8.74369716644287,8.77656364440918,8.80967807769775,8.84304332733154,8.8766622543335,8.91053867340088,8.94467353820801,8.97907161712646,9.01373481750488,9.04866695404053,9.08387088775635,9.11934947967529,9.15510654449463,9.1911449432373,9.22746849060059,9.26408100128174,9.30098342895508,9.33818244934082,9.3756799697876,9.41347980499268,9.451584815979,9.49000072479248,9.52872943878174,9.56777191162109,9.60713577270508,9.64682388305664,9.68684196472168,9.72719383239746,9.76788330078125,9.80891418457031,9.85029125213623,9.89201831817627,9.93410110473633,9.97654342651367,11.6198539733887,11.6196622848511,11.6194696426392,11.6192770004272,11.6190853118896,11.6188926696777,11.6187000274658,11.6185083389282,11.6183156967163,11.6181240081787,11.6179313659668,11.6177387237549,11.6175470352173,11.6173543930054,11.6171627044678,11.5106744766235,11.5104837417603,11.5102939605713,11.510103225708,11.5099124908447,11.5097217559814,11.5095319747925,11.5093412399292,11.5091505050659,11.508960723877,11.5087699890137,11.5085792541504,11.5352993011475,11.6144714355469,11.6142797470093,11.6140871047974,11.6138954162598,11.6137027740479,11.6461086273193,11.7046127319336,11.7637071609497,11.8234014511108,11.8837041854858,11.8967761993408,11.8984298706055,11.9000825881958,11.9017372131348,11.9033908843994,11.9050464630127,11.9067010879517,11.9083576202393,11.9100131988525,11.9116706848145,11.9133272171021,11.914984703064,11.9166431427002,11.9183015823364,11.919960975647,11.9216203689575,11.9232807159424,11.9249410629272,11.9266014099121,11.9282627105713,11.9299249649048,11.9315872192383,11.9332494735718,11.9349126815796,11.9365768432617,11.9382410049438,11.939905166626,11.9415702819824,11.9432353973389,11.9449014663696,11.9465684890747,11.9482345581055,11.9499025344849,11.9515705108643,11.9532384872437,11.9549074172974,11.9565763473511,11.9582462310791,11.9599161148071,11.9615869522095,11.9632577896118,11.9649295806885,11.9666013717651,11.9682741165161,11.9699468612671,11.9716205596924,11.9732942581177,11.9749689102173,11.9766435623169,11.9783191680908,11.9799947738647,11.981671333313,11.9833478927612,11.9850254058838,11.9867029190063,11.9883804321289,11.9900588989258,11.991738319397,11.9934177398682,11.9950981140137,11.9967784881592,11.998459815979,12.0001411437988,12.0018224716187,12.0035047531128,12.0051879882812,12.0068712234497,12.0085554122925,12.0102396011353,12.011923789978,12.0136089324951,12.0152950286865,12.0169811248779,12.0186672210693,12.0203542709351,12.0220422744751,12.0237302780151,12.0254182815552,12.0271072387695,12.0287971496582,12.0304870605469,12.0321779251099,12.0338687896729,12.0355596542358,12.0372514724731,12.0389442443848,12.0406370162964,12.042329788208,12.0440235137939,12.0457181930542,12.0474128723145,12.0491075515747,12.0508031845093,12.0524997711182,12.0541963577271,12.0558929443359,12.0575904846191,12.0592889785767,12.0609874725342,12.0626859664917,12.0643854141235,12.0660858154297,12.0677862167358,12.069486618042,12.0711879730225,12.0728902816772,12.074592590332,12.0762958526611,12.0779991149902,12.0797023773193,12.0814065933228,12.0831117630005,12.0848169326782,12.086522102356,12.088228225708,12.0899353027344,12.0916423797607,12.0933504104614,12.0950584411621,12.0967664718628,12.0984754562378,12.1001853942871,12.1018953323364,12.1036062240601,12.1053171157837,12.1070289611816,12.1087408065796,12.1104526519775,12.1121664047241,12.1138792037964,12.115592956543,12.1173076629639,12.1190223693848,12.12073802948,12.1224536895752,12.1241703033447,12.1258869171143,12.1276044845581,12.129322052002,12.1310405731201,12.1327590942383,12.1344785690308,12.1361980438232,12.13791847229,12.1396389007568,12.1413602828979,12.1430826187134,12.1448040008545,12.1465272903442,12.148250579834,12.1499738693237,12.1516981124878,12.1534223556519,12.1551475524902,12.1568737030029,12.1585998535156,12.1603260040283,12.1620531082153,12.1637811660767,12.165509223938,12.1672372817993,12.168966293335,12.1706962585449,12.1724262237549,12.1741571426392,12.1758880615234,12.1776189804077,12.1793508529663,12.1810836791992,12.1828165054321,12.1845502853394,12.1862840652466,12.1880187988281,12.1897535324097,12.1914892196655,12.1932249069214,12.1949615478516,12.1966981887817,12.1984357833862,12.2001733779907,12.2019119262695,12.2036514282227,12.2053909301758,12.2071304321289,12.2088708877563,12.2106122970581,12.2123537063599,12.2140951156616,12.2158374786377,12.2175807952881,12.2193241119385,12.2210674285889,12.2228116989136,12.2267007827759,12.2359094619751,12.2451314926147,12.2543687820435,12.2636184692383,12.2728834152222,12.2821617126465,12.2914533615112,12.300760269165,12.3100805282593,12.3194150924683,12.328763961792,12.3381271362305,12.3475046157837,12.3568964004517,12.3663024902344,12.3757219314575,12.3851566314697,12.3946056365967,12.4040689468384,12.4135465621948,12.4230394363403,12.4325456619263,12.4420671463013,12.4516038894653,12.4611539840698,12.4707193374634,12.4802989959717,12.489893913269,12.4995040893555,12.5091276168823,12.5187673568726,12.5284214019775,12.5380897521973,12.5477733612061,12.5574722290039,12.5671863555908,12.5769147872925,12.5866594314575,12.5964183807373,12.6061925888062,12.614616394043,12.620231628418,12.6258516311646,12.6314764022827,12.6371059417725,12.6427402496338,12.648380279541,12.6540250778198,12.6596746444702
8.34392738342285,8.34378910064697,8.34365081787109,8.34351253509521,8.34337425231934,8.34323596954346,8.34309768676758,8.3429594039917,8.34282112121582,8.34268283843994,8.34254455566406,8.34240627288818,8.3422679901123,8.34212970733643,8.34199142456055,8.34185314178467,8.34171485900879,8.34157657623291,8.34143829345703,8.34130001068115,8.34116172790527,8.34102439880371,8.34088611602783,8.34074783325195,8.34060955047607,8.3404712677002,8.34033298492432,8.34019470214844,8.34005641937256,8.33991813659668,8.36768245697021,8.39777851104736,8.42809104919434,8.4586238861084,8.48937797546387,8.52035713195801,8.55156326293945,8.58299922943115,8.61466598510742,8.64656829833984,8.67870712280273,8.71108627319336,8.74370765686035,8.77657413482666,8.80968856811523,8.84305477142334,8.87667369842529,8.91054916381836,8.9446849822998,8.97908306121826,9.01374626159668,9.04867839813232,9.08388233184814,9.11936092376709,9.15511798858643,9.19115734100342,9.2274808883667,9.26409244537354,9.30099582672119,9.33819484710693,9.37569141387939,9.41349124908447,9.45159721374512,9.49001312255859,9.52874088287354,9.56778335571289,9.60714721679688,9.64683628082275,9.68685436248779,9.72720527648926,9.76789474487305,9.80892562866211,9.85030269622803,9.89203071594238,9.93411350250244,9.97655582427979,11.6198282241821,11.6196355819702,11.6194429397583,11.6192512512207,11.6190586090088,11.6188659667969,11.6186742782593,11.6184816360474,11.6182889938354,11.6180973052979,11.6179046630859,11.6177129745483,11.6175203323364,11.6173276901245,11.6171360015869,11.616943359375,11.6167516708374,11.5398063659668,11.5394401550293,11.5390739440918,11.5387077331543,11.5383424758911,11.5379762649536,11.5376100540161,11.5372447967529,11.5368785858154,11.5365304946899,11.5361843109131,11.614444732666,11.6142530441284,11.6140613555908,11.6138687133789,11.6136770248413,11.6461210250854,11.7046251296997,11.7637195587158,11.823413848877,11.883716583252,11.8923559188843,11.8940076828003,11.8956594467163,11.8973121643066,11.8989658355713,11.9006195068359,11.9022731781006,11.9039278030396,11.9055824279785,11.9072380065918,11.9088945388794,11.910551071167,11.9122076034546,11.9138650894165,11.9155225753784,11.9171810150146,11.9188394546509,11.9204988479614,11.922158241272,11.9238185882568,11.9254789352417,11.9271402359009,11.9288015365601,11.9304637908936,11.9321260452271,11.9337892532349,11.9354524612427,11.9371156692505,11.9387798309326,11.9404449462891,11.9421100616455,11.9437761306763,11.945442199707,11.9471082687378,11.9487752914429,11.9504432678223,11.9521112442017,11.9537792205811,11.9554481506348,11.9571180343628,11.9587879180908,11.9604578018188,11.9621286392212,11.9638004302979,11.9654722213745,11.9671440124512,11.9688167572021,11.9704895019531,11.9721632003784,11.973837852478,11.9755115509033,11.9771871566772,11.9788627624512,11.9805383682251,11.9822149276733,11.9838914871216,11.9855690002441,11.9872465133667,11.9889249801636,11.9906034469604,11.9922828674316,11.9939622879028,11.9956426620483,11.9973230361938,11.9990043640137,12.0006856918335,12.0023679733276,12.0040502548218,12.0057334899902,12.0074167251587,12.0091009140015,12.0107851028442,12.0124702453613,12.0141553878784,12.0158414840698,12.0175275802612,12.019214630127,12.0209016799927,12.0225896835327,12.0242776870728,12.0259666442871,12.0276556015015,12.0293455123901,12.0310354232788,12.0327253341675,12.0344171524048,12.0361080169678,12.0377998352051,12.0394926071167,12.0411853790283,12.0428791046143,12.0445728302002,12.0462675094604,12.0479621887207,12.0496578216553,12.0513534545898,12.0530490875244,12.0547466278076,12.0564432144165,12.0581407546997,12.0598392486572,12.0615377426147,12.0632371902466,12.0649366378784,12.0666370391846,12.0683374404907,12.0700387954712,12.0717401504517,12.0734424591064,12.0751447677612,12.0768480300903,12.0785512924194,12.0802555084229,12.0819597244263,12.0836639404297,12.0853700637817,12.0870752334595,12.0887823104858,12.0904884338379,12.0921964645386,12.0939035415649,12.0956125259399,12.0973205566406,12.0990304946899,12.1007394790649,12.1024503707886,12.1041603088379,12.1058721542358,12.1075839996338,12.1092958450317,12.111008644104,12.1127214431763,12.1144351959229,12.1161489486694,12.1178636550903,12.1195783615112,12.1212940216064,12.123010635376,12.1247272491455,12.126443862915,12.1281614303589,12.1298789978027,12.1315975189209,12.1333169937134,12.1350364685059,12.1367559432983,12.1384763717651,12.1401977539062,12.1419191360474,12.1436405181885,12.1453628540039,12.1470861434937,12.1488094329834,12.1505327224731,12.1522569656372,12.1539821624756,12.155707359314,12.1574335098267,12.1591596603394,12.1608858108521,12.1626138687134,12.1643409729004,12.1660690307617,12.1677980422974,12.169527053833,12.171257019043,12.1729869842529,12.1747179031372,12.1764488220215,12.1781806945801,12.1799125671387,12.1816453933716,12.1833791732788,12.1851119995117,12.1868467330933,12.1885814666748,12.1903162002563,12.1920518875122,12.1937885284424,12.1955242156982,12.1972618103027,12.1989994049072,12.200737953186,12.2024765014648,12.2042150497437,12.2059545516968,12.2076950073242,12.2094354629517,12.2111768722534,12.2129182815552,12.2146596908569,12.2164030075073,12.2181453704834,12.2198896408081,12.2216329574585,12.2233781814575,12.2251234054565,12.2324600219727,12.2416772842407,12.2509078979492,12.2601537704468,12.2694120407104,12.2786855697632,12.2879724502563,12.2972736358643,12.3065891265869,12.3159189224243,12.3252620697021,12.3346195220947,12.3439922332764,12.3533782958984,12.3627786636353,12.3721933364868,12.3816223144531,12.3910655975342,12.4005241394043,12.4099960327148,12.4194831848145,12.4289846420288,12.4385004043579,12.4480314254761,12.457576751709,12.4671363830566,12.476710319519,12.4862995147705,12.495903968811,12.5055227279663,12.5151557922363,12.5248041152954,12.5344676971436,12.5441465377808,12.5538396835327,12.5635471343994,12.5732707977295,12.5830087661743,12.5927619934082,12.6005687713623,12.6061706542969,12.6117782592773,12.6173906326294,12.623007774353,12.6286296844482,12.6342573165894
8.34390830993652,8.34377002716064,8.34363174438477,8.34349346160889,8.34335517883301,8.34321689605713,8.34307861328125,8.34294033050537,8.34280204772949,8.34266376495361,8.34252548217773,8.34238719940186,8.34224891662598,8.3421106338501,8.34197235107422,8.34183406829834,8.34169578552246,8.34155750274658,8.3414192199707,8.34128189086914,8.34114360809326,8.34100532531738,8.3408670425415,8.34072875976562,8.34059047698975,8.34045219421387,8.34031391143799,8.34017562866211,8.34003734588623,8.33989906311035,8.36769199371338,8.39778804779053,8.42810153961182,8.45863342285156,8.48938846588135,8.52036762237549,8.55157375335693,8.58300876617432,8.6146764755249,8.64657878875732,8.67871761322021,8.71109676361084,8.74371814727783,8.77658462524414,8.80970001220703,8.84306526184082,8.87668418884277,8.91056060791016,8.94469547271729,8.97909355163574,9.01375770568848,9.04868984222412,9.08389377593994,9.11937236785889,9.15513038635254,9.19116878509521,9.2274923324585,9.26410484313965,9.3010082244873,9.33820629119873,9.37570381164551,9.41350364685059,9.45160961151123,9.49002552032471,9.52875232696533,9.56779479980469,9.60715866088867,9.64684772491455,9.68686580657959,9.72721767425537,9.76790618896484,9.80893802642822,9.85031509399414,9.8920431137085,9.93412590026855,9.9765682220459,11.6198015213013,11.6196088790894,11.6194171905518,11.6192245483398,11.6190319061279,11.6188402175903,11.6186475753784,11.6184549331665,11.6182632446289,11.618070602417,11.6178789138794,11.6176862716675,11.6174936294556,11.617301940918,11.6171092987061,11.6169176101685,11.6167249679565,11.6165323257446,11.616340637207,11.6161479949951,11.6159563064575,11.6157636642456,11.615571975708,11.5702514648438,11.6151876449585,11.6149950027466,11.614803314209,11.6146106719971,11.6144189834595,11.6142263412476,11.61403465271,11.6138429641724,11.6136503219604,11.6461334228516,11.7046375274658,11.7637319564819,11.8234262466431,11.8837289810181,11.8879375457764,11.8895883560181,11.8912391662598,11.8928909301758,11.8945426940918,11.8961954116821,11.8978481292725,11.8995018005371,11.9011554718018,11.9028100967407,11.9044647216797,11.9061193466187,11.9077749252319,11.9094314575195,11.9110879898071,11.9127445220947,11.9144020080566,11.9160604476929,11.9177188873291,11.9193773269653,11.9210367202759,11.9226970672607,11.9243574142456,11.9260177612305,11.9276790618896,11.9293403625488,11.9310026168823,11.9326648712158,11.9343280792236,11.9359912872314,11.9376554489136,11.9393196105957,11.9409847259521,11.9426498413086,11.9443159103394,11.9459819793701,11.9476490020752,11.9493160247803,11.9509840011597,11.9526519775391,11.9543209075928,11.9559898376465,11.9576597213745,11.9593296051025,11.9609994888306,11.9626703262329,11.9643421173096,11.9660139083862,11.9676866531372,11.9693593978882,11.9710321426392,11.9727058410645,11.9743804931641,11.9760551452637,11.9777297973633,11.9794054031372,11.9810819625854,11.9827585220337,11.9844350814819,11.9861125946045,11.9877910614014,11.9894695281982,11.9911479949951,11.9928274154663,11.9945077896118,11.9961881637573,11.9978685379028,11.9995498657227,12.0012311935425,12.0029134750366,12.0045967102051,12.0062789916992,12.007963180542,12.0096473693848,12.0113315582275,12.0130167007446,12.0147018432617,12.0163879394531,12.0180749893188,12.0197610855103,12.0214490890503,12.0231370925903,12.0248250961304,12.0265140533447,12.0282030105591,12.0298929214478,12.0315828323364,12.0332736968994,12.0349655151367,12.0366563796997,12.0383491516113,12.0400419235229,12.0417346954346,12.0434284210205,12.0451221466064,12.0468168258667,12.048511505127,12.0502071380615,12.0519027709961,12.053599357605,12.0552968978882,12.0569944381714,12.0586919784546,12.0603904724121,12.0620889663696,12.0637884140015,12.0654878616333,12.0671882629395,12.0688886642456,12.0705900192261,12.0722923278809,12.0739946365356,12.0756969451904,12.0774002075195,12.0791034698486,12.0808076858521,12.0825119018555,12.0842170715332,12.0859231948853,12.0876293182373,12.0893354415894,12.0910425186157,12.0927495956421,12.0944576263428,12.0961666107178,12.0978746414185,12.0995845794678,12.1012945175171,12.1030044555664,12.10471534729,12.106427192688,12.1081390380859,12.1098508834839,12.1115636825562,12.1132774353027,12.1149911880493,12.1167049407959,12.1184196472168,12.120135307312,12.1218509674072,12.1235666275024,12.125283241272,12.1270008087158,12.1287183761597,12.1304368972778,12.132155418396,12.1338739395142,12.1355934143066,12.1373138427734,12.1390342712402,12.1407556533813,12.1424770355225,12.1441993713379,12.1459217071533,12.1476449966431,12.1493682861328,12.1510915756226,12.1528167724609,12.154541015625,12.1562671661377,12.1579933166504,12.1597194671631,12.1614465713501,12.1631736755371,12.1649017333984,12.1666297912598,12.1683588027954,12.1700878143311,12.171817779541,12.1735486984253,12.1752796173096,12.1770105361938,12.1787424087524,12.180474281311,12.1822071075439,12.1839408874512,12.1856746673584,12.1874094009399,12.1891441345215,12.190878868103,12.1926145553589,12.1943511962891,12.1960878372192,12.1978254318237,12.1995630264282,12.201301574707,12.2030401229858,12.204779624939,12.2065191268921,12.2082595825195,12.210000038147,12.2117414474487,12.2134828567505,12.2152252197266,12.2169675827026,12.218710899353,12.2204551696777,12.2221994400024,12.2239437103271,12.2256889343262,12.2290124893188,12.238224029541,12.2474498748779,12.2566900253296,12.2659435272217,12.2752113342285,12.2844934463501,12.2937898635864,12.3030996322632,12.3124237060547,12.3217620849609,12.3311147689819,12.3404808044434,12.3498620986938,12.3592567443848,12.3686666488647,12.3780899047852,12.3875284194946,12.3969812393188,12.4064474105835,12.4159297943115,12.42542552948,12.4349355697632,12.4444608688354,12.4540004730225,12.4635553359985,12.473123550415,12.4827079772949,12.4923057556152,12.5019187927246,12.511547088623,12.5211896896362,12.5308475494385,12.5405206680298,12.5502080917358,12.559910774231,12.5696277618408,12.5793609619141,12.5865516662598,12.5921411514282,12.5977363586426,12.6033363342285,12.608941078186
8.3438892364502,8.34375095367432,8.34361267089844,8.34347438812256,8.34333610534668,8.3431978225708,8.34305953979492,8.34292125701904,8.34278297424316,8.34264469146729,8.34250640869141,8.34236812591553,8.34222984313965,8.34209156036377,8.34195327758789,8.34181499481201,8.34167766571045,8.34153938293457,8.34140110015869,8.34126281738281,8.34112453460693,8.34098625183105,8.34084796905518,8.3407096862793,8.34057140350342,8.34043312072754,8.34029483795166,8.34015655517578,8.3400182723999,8.33988094329834,8.36770248413086,8.39779758453369,8.42811107635498,8.45864391326904,8.48939800262451,8.52037715911865,8.5515832901001,8.5830192565918,8.61468696594238,8.6465892791748,8.6787281036377,8.71110725402832,8.74372863769531,8.77659606933594,8.80971050262451,8.8430757522583,8.87669563293457,8.91057109832764,8.94470691680908,8.97910499572754,9.01376914978027,9.04870128631592,9.08390522003174,9.119384765625,9.15514183044434,9.19118022918701,9.22750473022461,9.26411628723145,9.3010196685791,9.33821868896484,9.37571620941162,9.4135160446167,9.45162200927734,9.49003791809082,9.52876281738281,9.56780624389648,9.60717010498047,9.64685916900635,9.68687725067139,9.72722911834717,9.76791858673096,9.80894947052002,9.85032749176025,9.89205455780029,9.93413829803467,9.97658061981201,11.6197748184204,11.6195831298828,11.6193904876709,11.619197845459,11.6190061569214,11.6188135147095,11.6186208724976,11.61842918396,11.618236541748,11.6180438995361,11.6178522109985,11.6176595687866,11.617467880249,11.6172752380371,11.6170825958252,11.6168909072876,11.6166982650757,11.6165065765381,11.6163139343262,11.6161222457886,11.6159296035767,11.6157379150391,11.6143074035645,11.5838861465454,11.6118173599243,11.6125574111938,11.6143236160278,11.6145849227905,11.6143922805786,11.614200592041,11.6140079498291,11.6138162612915,11.6136245727539,11.6461458206177,11.7046499252319,11.763744354248,11.8234386444092,11.881875038147,11.88352394104,11.8851728439331,11.8868227005005,11.8884735107422,11.8901243209839,11.8917751312256,11.8934268951416,11.8950786590576,11.8967313766479,11.8983840942383,11.9000377655029,11.9016914367676,11.9033460617065,11.9050006866455,11.9066562652588,11.9083118438721,11.9099683761597,11.9116249084473,11.9132823944092,11.9149398803711,11.9165983200073,11.9182567596436,11.9199151992798,11.9215755462646,11.9232349395752,11.9248952865601,11.9265565872192,11.9282178878784,11.9298791885376,11.9315414428711,11.9332046508789,11.9348678588867,11.9365310668945,11.9381952285767,11.9398593902588,11.9415245056152,11.943190574646,11.9448566436768,11.9465227127075,11.9481897354126,11.9498567581177,11.9515247344971,11.9531927108765,11.9548616409302,11.9565315246582,11.9582004547119,11.9598712921143,11.9615411758423,11.9632129669189,11.9648838043213,11.9665565490723,11.9682283401489,11.9699020385742,11.9715747833252,11.9732484817505,11.9749231338501,11.9765977859497,11.9782733917236,11.9799489974976,11.9816255569458,11.983302116394,11.9849796295166,11.9866571426392,11.9883346557617,11.9900140762329,11.9916925430298,11.993371963501,11.9950523376465,11.996732711792,11.9984140396118,12.0000953674316,12.0017766952515,12.0034589767456,12.0051422119141,12.0068254470825,12.008508682251,12.0101928710938,12.0118780136108,12.0135631561279,12.0152492523193,12.0169353485107,12.0186214447021,12.0203084945679,12.0219964981079,12.0236845016479,12.025372505188,12.0270614624023,12.028751373291,12.0304412841797,12.0321311950684,12.0338220596313,12.0355138778687,12.037205696106,12.0388975143433,12.0405902862549,12.0422840118408,12.0439777374268,12.0456714630127,12.0473661422729,12.0490617752075,12.0507574081421,12.0524530410767,12.0541496276855,12.0558471679688,12.057544708252,12.0592422485352,12.0609407424927,12.0626401901245,12.0643396377563,12.0660390853882,12.0677394866943,12.0694408416748,12.0711421966553,12.0728435516357,12.0745458602905,12.0762491226196,12.0779523849487,12.0796556472778,12.0813598632812,12.083065032959,12.0847702026367,12.0864763259888,12.0881824493408,12.0898885726929,12.0915956497192,12.0933036804199,12.0950117111206,12.0967206954956,12.0984296798706,12.1001386642456,12.1018486022949,12.1035594940186,12.1052703857422,12.1069822311401,12.1086940765381,12.110405921936,12.1121196746826,12.1138324737549,12.1155462265015,12.1172609329224,12.1189756393433,12.1206912994385,12.1224069595337,12.1241235733032,12.1258401870728,12.1275577545166,12.1292753219604,12.1309938430786,12.1327123641968,12.1344318389893,12.1361513137817,12.1378717422485,12.1395921707153,12.1413135528564,12.1430349349976,12.144757270813,12.1464805603027,12.1482028961182,12.1499271392822,12.1516513824463,12.1533756256104,12.1551008224487,12.1568260192871,12.1585521697998,12.1602792739868,12.1620063781738,12.1637334823608,12.1654615402222,12.1671905517578,12.1689195632935,12.1706485748291,12.1723794937134,12.1741094589233,12.1758403778076,12.1775722503662,12.1793041229248,12.1810369491577,12.1827697753906,12.1845026016235,12.1862373352051,12.1879711151123,12.1897068023682,12.1914415359497,12.1931781768799,12.1949138641357,12.1966514587402,12.1983890533447,12.2001266479492,12.201865196228,12.2036037445068,12.20534324646,12.2070827484131,12.2088232040405,12.2105646133423,12.212306022644,12.2140474319458,12.2157897949219,12.2175331115723,12.2192764282227,12.2210206985474,12.2227649688721,12.2245092391968,12.2262544631958,12.2280006408691,12.2347736358643,12.2439937591553,12.2532291412354,12.2624769210815,12.2717399597168,12.2810163497925,12.2903070449829,12.2996120452881,12.3089303970337,12.3182640075684,12.3276109695435,12.3369722366333,12.3463478088379,12.3557376861572,12.3651418685913,12.3745594024658,12.3839931488037,12.393440246582,12.4029016494751,12.4123773574829,12.4218683242798,12.4313726425171,12.4408922195435,12.4504270553589,12.4599752426147,12.469539642334,12.4791173934937,12.4887104034424,12.4983177185059,12.5079402923584,12.517578125,12.5272302627563,12.5368967056274,12.5465784072876,12.5562763214111,12.5659875869751,12.5725660324097,12.578143119812,12.5837259292603
8.34387016296387,8.34373188018799,8.34359359741211,8.34345531463623,8.34331703186035,8.34317874908447,8.34304046630859,8.34290218353271,8.34276390075684,8.34262561798096,8.34248733520508,8.3423490524292,8.34221172332764,8.34207344055176,8.34193515777588,8.341796875,8.34165859222412,8.34152030944824,8.34138202667236,8.34124374389648,8.34110546112061,8.34096717834473,8.34082889556885,8.34069061279297,8.34055233001709,8.34041404724121,8.34027576446533,8.34013843536377,8.34000015258789,8.33986186981201,8.36771106719971,8.39780712127686,8.42812061309814,8.45865345001221,8.48940849304199,8.52038764953613,8.55159378051758,8.58302974700928,8.61469745635986,8.64659976959229,8.67873859405518,8.7111177444458,8.74373912811279,8.77660655975342,8.80972099304199,8.8430871963501,8.87670612335205,8.91058254241943,8.94471836090088,8.97911643981934,9.01377964019775,9.04871273040771,9.08391666412354,9.1193962097168,9.15515327453613,9.19119262695312,9.22751617431641,9.26412773132324,9.30103206634521,9.33823108673096,9.37572860717773,9.41352844238281,9.45163440704346,9.49004936218262,9.52877426147461,9.56781768798828,9.60718154907227,9.64687061309814,9.68688869476318,9.72724056243896,9.76793003082275,9.80896186828613,9.85033893585205,9.89206695556641,9.93415069580078,9.97659301757812,11.6197481155396,11.619556427002,11.61936378479,11.6191711425781,11.6189794540405,11.6187868118286,11.618595123291,11.6184024810791,11.6182098388672,11.6180181503296,11.6178255081177,11.6176328659058,11.6174411773682,11.6172485351562,11.6170568466187,11.6168642044067,11.6166725158691,11.6164798736572,11.6162872314453,11.6160955429077,11.6159029006958,11.6145687103271,11.6115694046021,11.609016418457,11.5960969924927,11.6095352172852,11.6118307113647,11.6144638061523,11.6143665313721,11.6141738891602,11.6139822006226,11.6137895584106,11.613597869873,11.6461582183838,11.704662322998,11.7637567520142,11.8234510421753,11.8774652481079,11.8791122436523,11.8807611465454,11.8824090957642,11.8840579986572,11.8857078552246,11.887357711792,11.8890085220337,11.8906593322754,11.8923101425171,11.8939619064331,11.8956146240234,11.8972673416138,11.8989200592041,11.9005737304688,11.9022283554077,11.9038829803467,11.9055376052856,11.9071931838989,11.9088487625122,11.9105052947998,11.9121627807617,11.9138193130493,11.9154777526855,11.9171361923218,11.918794631958,11.9204540252686,11.9221134185791,11.923773765564,11.9254341125488,11.927095413208,11.9287567138672,11.9304180145264,11.9320802688599,11.9337434768677,11.9354066848755,11.9370708465576,11.9387350082397,11.9404001235962,11.9420652389526,11.9437303543091,11.9453964233398,11.9470634460449,11.94873046875,11.9503974914551,11.9520654678345,11.9537343978882,11.9554033279419,11.9570722579956,11.9587421417236,11.960412979126,11.9620838165283,11.9637546539307,11.9654264450073,11.967098236084,11.968770980835,11.9704446792603,11.9721174240112,11.9737920761108,11.9754667282104,11.9771413803101,11.978816986084,11.9804925918579,11.9821691513062,11.9838457107544,11.985523223877,11.9872007369995,11.9888792037964,11.9905576705933,11.9922370910645,11.9939165115356,11.9955968856812,11.9972772598267,11.9989585876465,12.0006399154663,12.0023221969604,12.0040044784546,12.005687713623,12.0073709487915,12.0090551376343,12.0107393264771,12.0124244689941,12.0141096115112,12.0157957077026,12.017481803894,12.0191688537598,12.0208559036255,12.0225439071655,12.0242319107056,12.0259199142456,12.0276098251343,12.0292987823486,12.0309886932373,12.0326795578003,12.0343704223633,12.0360622406006,12.0377540588379,12.0394468307495,12.0411396026611,12.0428333282471,12.044527053833,12.0462207794189,12.0479164123535,12.0496110916138,12.0513067245483,12.0530033111572,12.0546998977661,12.0563974380493,12.0580949783325,12.05979347229,12.0614919662476,12.0631914138794,12.0648908615112,12.0665903091431,12.0682916641235,12.0699920654297,12.0716934204102,12.0733957290649,12.0750980377197,12.0768013000488,12.0785045623779,12.0802087783813,12.0819129943848,12.0836181640625,12.0853233337402,12.0870294570923,12.0887355804443,12.0904426574707,12.0921497344971,12.0938577651978,12.0955657958984,12.0972747802734,12.0989837646484,12.1006937026978,12.1024036407471,12.1041145324707,12.1058254241943,12.1075372695923,12.1092491149902,12.1109619140625,12.1126747131348,12.1143884658813,12.1161022186279,12.1178169250488,12.1195316314697,12.1212472915649,12.1229639053345,12.124680519104,12.1263971328735,12.1281147003174,12.1298322677612,12.1315507888794,12.1332702636719,12.1349897384644,12.1367092132568,12.1384296417236,12.1401500701904,12.1418714523315,12.143593788147,12.1453161239624,12.1470384597778,12.1487617492676,12.1504859924316,12.1522102355957,12.1539354324341,12.1556606292725,12.1573858261108,12.1591119766235,12.1608390808105,12.1625661849976,12.1642942428589,12.1660223007202,12.1677513122559,12.1694803237915,12.1712102890015,12.1729402542114,12.1746711730957,12.17640209198,12.1781339645386,12.1798658370972,12.1815986633301,12.183331489563,12.1850652694702,12.1867990493774,12.188533782959,12.1902694702148,12.1920051574707,12.1937408447266,12.1954774856567,12.1972141265869,12.1989517211914,12.2006902694702,12.202428817749,12.2041673660278,12.2059078216553,12.2076473236084,12.2093877792358,12.2111291885376,12.2128705978394,12.2146129608154,12.2163553237915,12.2180986404419,12.2198419570923,12.221586227417,12.2233304977417,12.2250757217407,12.2268209457397,12.2285671234131,12.2313241958618,12.2405395507812,12.2497692108154,12.25901222229,12.2682704925537,12.2775411605835,12.2868270874023,12.2961263656616,12.3054399490356,12.3147678375244,12.3241090774536,12.3334655761719,12.3428354263306,12.352219581604,12.3616189956665,12.3710317611694,12.3804588317871,12.3899011611938,12.399356842041,12.4088277816772,12.4183130264282,12.4278125762939,12.4373264312744,12.4468555450439,12.4563989639282,12.4659566879272,12.4755296707153,12.4851169586182,12.4947185516357,12.5043354034424,12.5139675140381,12.5236139297485,12.533275604248,12.5429515838623,12.5526428222656,12.558611869812
8.34385204315186,8.34371376037598,8.3435754776001,8.34343719482422,8.34329891204834,8.34316062927246,8.34302234649658,8.3428840637207,8.34274578094482,8.34260749816895,8.34246921539307,8.34233093261719,8.34219264984131,8.34205436706543,8.34191608428955,8.34177780151367,8.34163951873779,8.34150123596191,8.34136295318604,8.34122467041016,8.34108638763428,8.3409481048584,8.34080982208252,8.34067153930664,8.34053325653076,8.34039497375488,8.34025764465332,8.34011936187744,8.33998107910156,8.33984279632568,8.36772155761719,8.39781761169434,8.42813014984131,8.45866298675537,8.48941898345947,8.52039813995361,8.55160427093506,8.58304023742676,8.61470699310303,8.64660930633545,8.67874908447266,8.71112823486328,8.74375057220459,8.7766170501709,8.80973243713379,8.84309768676758,8.87671756744385,8.91059398651123,8.94472885131836,8.97912693023682,9.01379108428955,9.0487232208252,9.08392810821533,9.11940765380859,9.15516471862793,9.19120407104492,9.2275276184082,9.26414012908936,9.30104351043701,9.33824253082275,9.37574100494385,9.41354084014893,9.45164680480957,9.4900598526001,9.52878570556641,9.56782817840576,9.60719299316406,9.64688205718994,9.68690013885498,9.72725200653076,9.76794242858887,9.80897331237793,9.85035133361816,9.89207935333252,9.93416213989258,9.97660541534424,11.619722366333,11.6195297241211,11.6193370819092,11.6191453933716,11.6189527511597,11.6187601089478,11.6185684204102,11.6183757781982,11.6181840896606,11.6179914474487,11.6177988052368,11.6176071166992,11.6174144744873,11.6172227859497,11.6170301437378,11.6168375015259,11.6166458129883,11.6164531707764,11.6162614822388,11.6160688400269,11.6158771514893,11.6135015487671,11.6094465255737,11.6059303283691,11.6034708023071,11.6071128845215,11.6103210449219,11.6135311126709,11.6143398284912,11.6141481399536,11.6139554977417,11.6137638092041,11.6135711669922,11.6461696624756,11.7046747207642,11.7637691497803,11.8234634399414,11.8730583190918,11.8747053146362,11.8763523101807,11.8779993057251,11.8796472549438,11.8812952041626,11.8829441070557,11.8845930099487,11.8862428665161,11.8878927230835,11.8895435333252,11.8911943435669,11.8928461074829,11.8944978713989,11.8961505889893,11.8978033065796,11.8994569778442,11.9011106491089,11.9027643203735,11.9044189453125,11.9060745239258,11.9077301025391,11.9093866348267,11.9110431671143,11.9126996994019,11.9143571853638,11.916015625,11.9176731109619,11.9193325042725,11.920991897583,11.9226512908936,11.9243116378784,11.9259719848633,11.9276332855225,11.929295539856,11.9309577941895,11.9326200485229,11.9342832565308,11.9359464645386,11.9376106262207,11.9392747879028,11.9409399032593,11.9426050186157,11.9442710876465,11.9459371566772,11.9476041793823,11.9492712020874,11.9509382247925,11.9526062011719,11.9542751312256,11.9559440612793,11.9576139450073,11.9592838287354,11.9609546661377,11.96262550354,11.9642963409424,11.965968132019,11.96764087677,11.969313621521,11.970986366272,11.9726600646973,11.9743347167969,11.9760093688965,11.9776849746704,11.9793605804443,11.9810361862183,11.9827127456665,11.9843893051147,11.9860668182373,11.9877452850342,11.9894237518311,11.9911022186279,11.9927816390991,11.9944620132446,11.9961423873901,11.9978227615356,11.9995040893555,12.0011854171753,12.0028676986694,12.0045509338379,12.006233215332,12.0079174041748,12.0096015930176,12.0112857818604,12.0129709243774,12.0146560668945,12.0163421630859,12.0180282592773,12.0197153091431,12.0214033126831,12.0230913162231,12.0247793197632,12.0264682769775,12.0281572341919,12.0298471450806,12.0315370559692,12.0332279205322,12.0349187850952,12.0366106033325,12.0383024215698,12.0399951934814,12.0416889190674,12.043381690979,12.0450763702393,12.0467710494995,12.0484657287598,12.0501613616943,12.0518569946289,12.0535535812378,12.0552501678467,12.0569477081299,12.0586452484131,12.0603437423706,12.0620431900024,12.06374168396,12.0654420852661,12.0671424865723,12.0688428878784,12.0705442428589,12.0722455978394,12.0739479064941,12.0756502151489,12.077353477478,12.0790567398071,12.0807609558105,12.0824661254883,12.084171295166,12.0858764648438,12.0875825881958,12.0892887115479,12.0909957885742,12.0927028656006,12.0944108963013,12.0961198806763,12.0978288650513,12.0995378494263,12.1012477874756,12.1029577255249,12.1046686172485,12.1063804626465,12.1080923080444,12.1098041534424,12.1115169525146,12.1132307052612,12.1149444580078,12.1166582107544,12.1183729171753,12.1200885772705,12.1218042373657,12.1235198974609,12.1252365112305,12.1269540786743,12.1286716461182,12.1303901672363,12.1321086883545,12.1338272094727,12.1355466842651,12.1372671127319,12.1389875411987,12.1407089233398,12.142430305481,12.1441516876221,12.1458749771118,12.1475973129272,12.1493215560913,12.1510448455811,12.1527690887451,12.1544942855835,12.1562194824219,12.1579456329346,12.1596717834473,12.1613988876343,12.1631269454956,12.1648540496826,12.1665830612183,12.1683120727539,12.1700410842896,12.1717710494995,12.1735010147095,12.1752319335938,12.1769638061523,12.1786956787109,12.1804275512695,12.1821603775024,12.1838932037354,12.1856279373169,12.1873617172241,12.1890964508057,12.1908321380615,12.1925678253174,12.1943035125732,12.1960401535034,12.1977777481079,12.1995153427124,12.2012538909912,12.20299243927,12.2047319412231,12.2064714431763,12.2082118988037,12.2099523544312,12.2116937637329,12.2134351730347,12.2151775360107,12.2169198989868,12.2186632156372,12.2204074859619,12.2221517562866,12.2238960266113,12.2256412506104,12.2273874282837,12.229133605957,12.2308797836304,12.2370872497559,12.2463121414185,12.2555503845215,12.2648019790649,12.2740678787231,12.2833480834961,12.2926425933838,12.3019504547119,12.3112735748291,12.3206100463867,12.3299598693848,12.3393249511719,12.3487043380737,12.3580980300903,12.3675050735474,12.3769273757935,12.3863639831543,12.3958148956299,12.4052801132202,12.4147596359253,12.4242534637451,12.433762550354,12.4432859420776,12.452823638916,12.4623756408691,12.4719429016113,12.4815254211426,12.4911212921143,12.5007333755493,12.5103588104248,12.5200004577637,12.5296564102173
8.34383296966553,8.34369468688965,8.34355640411377,8.34341812133789,8.34327983856201,8.34314155578613,8.34300327301025,8.34286499023438,8.3427267074585,8.34258842468262,8.34245014190674,8.34231185913086,8.34217357635498,8.3420352935791,8.34189701080322,8.34175872802734,8.34162044525146,8.34148216247559,8.34134387969971,8.34120559692383,8.34106731414795,8.34092903137207,8.34079074859619,8.34065246582031,8.34051513671875,8.34037685394287,8.34023857116699,8.34010028839111,8.33996200561523,8.33982372283936,8.36773109436035,8.3978271484375,8.42814064025879,8.45867347717285,8.48942852020264,8.52040767669678,8.55161476135254,8.58304977416992,8.61471748352051,8.64661979675293,8.67875957489014,8.71113872528076,8.74376106262207,8.77662754058838,8.80974292755127,8.84310913085938,8.87672805786133,8.91060447692871,8.94474029541016,8.97913837432861,9.01380252838135,9.04873466491699,9.08393955230713,9.11941909790039,9.15517616271973,9.19121551513672,9.22754001617432,9.26415157318115,9.30105590820312,9.33825492858887,9.37575244903564,9.41355323791504,9.45165920257568,9.49007129669189,9.5287971496582,9.56783962249756,9.60720443725586,9.64689350128174,9.68691158294678,9.72726440429688,9.76795387268066,9.80898571014404,9.85036277770996,9.89209175109863,9.93417453765869,9.97661781311035,11.6196956634521,11.6195030212402,11.6193113327026,11.6191186904907,11.6189260482788,11.6187343597412,11.6185417175293,11.6183490753174,11.6181573867798,11.6179647445679,11.6177730560303,11.6175804138184,11.6173877716064,11.6171960830688,11.6170034408569,11.6168117523193,11.6166191101074,11.6164274215698,11.6162347793579,11.6160430908203,11.6158504486084,11.6132411956787,11.6090726852417,11.604907989502,11.6035528182983,11.6067295074463,11.610013961792,11.613299369812,11.6143131256104,11.6141214370728,11.6139297485352,11.6137371063232,11.6135454177856,11.6461820602417,11.704686164856,11.7637815475464,11.8234767913818,11.8686552047729,11.8703002929688,11.8719463348389,11.873592376709,11.8752393722534,11.8768863677979,11.8785333633423,11.880181312561,11.8818302154541,11.8834791183472,11.8851280212402,11.8867778778076,11.888427734375,11.8900785446167,11.8917303085327,11.8933820724487,11.8950338363647,11.8966865539551,11.8983392715454,11.8999929428101,11.9016466140747,11.9033012390137,11.9049558639526,11.9066114425659,11.9082670211792,11.9099235534668,11.9115800857544,11.9132375717163,11.9148950576782,11.9165525436401,11.9182109832764,11.9198703765869,11.9215297698975,11.9231901168823,11.9248504638672,11.9265108108521,11.9281721115112,11.9298343658447,11.9314966201782,11.9331588745117,11.9348220825195,11.9364862442017,11.9381504058838,11.9398145675659,11.9414796829224,11.9431447982788,11.9448108673096,11.9464769363403,11.9481439590454,11.9498119354248,11.9514789581299,11.9531478881836,11.9548168182373,11.956485748291,11.958155632019,11.9598255157471,11.9614963531494,11.9631671905518,11.9648389816284,11.9665107727051,11.9681835174561,11.969856262207,11.971529006958,11.9732036590576,11.9748773574829,11.9765529632568,11.9782276153564,11.9799032211304,11.9815797805786,11.9832563400269,11.9849338531494,11.986611366272,11.9882888793945,11.9899682998657,11.9916467666626,11.9933261871338,11.9950065612793,11.9966869354248,11.9983682632446,12.0000495910645,12.0017309188843,12.0034132003784,12.0050964355469,12.0067796707153,12.0084629058838,12.0101470947266,12.0118322372437,12.0135173797607,12.0152025222778,12.0168886184692,12.018575668335,12.0202627182007,12.0219497680664,12.0236377716064,12.0253267288208,12.0270156860352,12.0287046432495,12.0303945541382,12.0320854187012,12.0337762832642,12.0354671478271,12.0371589660645,12.0388517379761,12.0405445098877,12.0422372817993,12.0439310073853,12.0456256866455,12.0473203659058,12.049015045166,12.0507106781006,12.0524072647095,12.0541038513184,12.0558004379272,12.0574979782104,12.059196472168,12.0608949661255,12.062593460083,12.0642929077148,12.065993309021,12.0676937103271,12.0693941116333,12.0710954666138,12.0727977752686,12.0745000839233,12.0762023925781,12.0779056549072,12.0796098709106,12.0813140869141,12.0830183029175,12.0847234725952,12.0864295959473,12.0881357192993,12.0898427963257,12.0915498733521,12.0932569503784,12.0949649810791,12.0966739654541,12.0983829498291,12.1000919342041,12.1018028259277,12.1035127639771,12.1052236557007,12.1069355010986,12.1086473464966,12.1103601455688,12.1120729446411,12.1137857437134,12.11549949646,12.1172142028809,12.1189289093018,12.120644569397,12.1223602294922,12.1240768432617,12.1257934570312,12.1275110244751,12.1292285919189,12.1309471130371,12.1326656341553,12.1343851089478,12.1361045837402,12.137825012207,12.1395454406738,12.1412668228149,12.1429882049561,12.1447105407715,12.1464328765869,12.1481561660767,12.1498804092407,12.1516046524048,12.1533288955688,12.1550540924072,12.1567792892456,12.1585054397583,12.1602325439453,12.1619596481323,12.1636867523193,12.1654148101807,12.1671438217163,12.168872833252,12.1706018447876,12.1723318099976,12.1740627288818,12.1757936477661,12.1775245666504,12.179256439209,12.1809892654419,12.1827220916748,12.184455871582,12.1861896514893,12.1879243850708,12.1896591186523,12.1913948059082,12.1931304931641,12.1948671340942,12.1966037750244,12.1983413696289,12.2000789642334,12.2018175125122,12.203556060791,12.2052955627441,12.2070360183716,12.208776473999,12.2105169296265,12.2122583389282,12.2140007019043,12.2157430648804,12.2174854278564,12.2192287445068,12.2209730148315,12.2227172851562,12.224461555481,12.2262077331543,12.2279529571533,12.2296991348267,12.2314462661743,12.2336368560791,12.2428560256958,12.2520895004272,12.2613363265991,12.2705974578857,12.2798719406128,12.2891607284546,12.2984638214111,12.3077812194824,12.3171119689941,12.3264570236206,12.3358173370361,12.3451910018921,12.3545789718628,12.3639812469482,12.3733978271484,12.3828287124634,12.3922739028931,12.4017343521118,12.411208152771,12.4206972122192,12.4302005767822,12.43971824646,12.4492502212524,12.458797454834,12.4683589935303,12.4779357910156,12.4875268936157,12.4971323013306
8.3438138961792,8.34367561340332,8.34353733062744,8.34339904785156,8.34326076507568,8.3431224822998,8.34298419952393,8.34284591674805,8.34270763397217,8.34256935119629,8.34243106842041,8.34229278564453,8.34215450286865,8.34201622009277,8.34187793731689,8.34173965454102,8.34160137176514,8.34146308898926,8.34132480621338,8.3411865234375,8.34104824066162,8.34090995788574,8.34077262878418,8.3406343460083,8.34049606323242,8.34035778045654,8.34021949768066,8.34008121490479,8.33994293212891,8.33980464935303,8.36774063110352,8.39783668518066,8.42815017700195,8.45868301391602,8.4894380569458,8.52041816711426,8.5516242980957,8.5830602645874,8.61472797393799,8.64663028717041,8.67877006530762,8.71114921569824,8.74377155303955,8.77663803100586,8.80975341796875,8.84311962127686,8.87673950195312,8.91061592102051,8.94475173950195,8.97914981842041,9.01381397247314,9.04874610900879,9.08395099639893,9.11943054199219,9.15518856048584,9.19122695922852,9.22755146026611,9.26416397094727,9.30106830596924,9.33826732635498,9.37576484680176,9.41356563568115,9.45167064666748,9.49008274078369,9.52880859375,9.56785106658936,9.60721492767334,9.64690494537354,9.68692398071289,9.72727584838867,9.76796531677246,9.80899715423584,9.85037517547607,9.89210319519043,9.9341869354248,9.97663021087646,11.6196689605713,11.6194772720337,11.6192846298218,11.6190919876099,11.6189002990723,11.6187076568604,11.6185150146484,11.6183233261108,11.6181306838989,11.6179389953613,11.6177463531494,11.6175537109375,11.6173620223999,11.617169380188,11.6169776916504,11.6167850494385,11.6165933609009,11.616400718689,11.6162090301514,11.6160163879395,11.6158246994019,11.614275932312,11.6107015609741,11.6076278686523,11.6069574356079,11.6086101531982,11.6110582351685,11.6142091751099,11.6142873764038,11.6140947341919,11.6139030456543,11.6137113571167,11.6135187149048,11.6461944580078,11.7046985626221,11.7637939453125,11.8234891891479,11.8642549514771,11.8658990859985,11.8675441741943,11.8691883087158,11.8708343505859,11.8724803924561,11.8741264343262,11.8757734298706,11.877420425415,11.8790674209595,11.8807163238525,11.8823642730713,11.8840131759644,11.8856630325317,11.8873128890991,11.8889636993408,11.8906145095825,11.8922653198242,11.8939170837402,11.8955698013306,11.8972225189209,11.8988752365112,11.9005289077759,11.9021835327148,11.9038381576538,11.9054927825928,11.9071483612061,11.9088039398193,11.9104604721069,11.9121170043945,11.9137744903564,11.9154319763184,11.9170904159546,11.9187488555908,11.9204082489014,11.9220676422119,11.9237279891968,11.9253883361816,11.9270496368408,11.9287109375,11.9303731918335,11.932035446167,11.9336986541748,11.9353618621826,11.9370250701904,11.9386892318726,11.940354347229,11.9420194625854,11.9436855316162,11.945351600647,11.9470176696777,11.9486846923828,11.9503526687622,11.9520206451416,11.953688621521,11.9553575515747,11.9570274353027,11.9586963653564,11.9603672027588,11.9620380401611,11.9637088775635,11.9653806686401,11.9670524597168,11.9687252044678,11.9703989028931,11.9720726013184,11.9737462997437,11.9754209518433,11.9770956039429,11.9787712097168,11.9804468154907,11.982123374939,11.9837999343872,11.9854774475098,11.9871549606323,11.9888334274292,11.9905118942261,11.9921913146973,11.9938707351685,11.995551109314,11.9972314834595,11.9989128112793,12.0005941390991,12.0022764205933,12.0039587020874,12.0056419372559,12.0073251724243,12.0090093612671,12.0106935501099,12.012378692627,12.014063835144,12.0157499313354,12.0174360275269,12.0191230773926,12.0208101272583,12.022497177124,12.0241861343384,12.0258741378784,12.0275630950928,12.0292530059814,12.0309429168701,12.0326337814331,12.0343246459961,12.0360164642334,12.0377082824707,12.039400100708,12.0410938262939,12.0427865982056,12.0444803237915,12.0461750030518,12.047869682312,12.0495653152466,12.0512609481812,12.05295753479,12.0546541213989,12.0563507080078,12.0580492019653,12.0597467422485,12.0614452362061,12.0631446838379,12.0648441314697,12.0665445327759,12.068244934082,12.0699462890625,12.071647644043,12.0733489990234,12.0750522613525,12.0767545700073,12.0784578323364,12.0801620483398,12.0818662643433,12.083571434021,12.0852766036987,12.0869827270508,12.0886888504028,12.0903959274292,12.0921030044556,12.0938110351562,12.0955190658569,12.0972280502319,12.0989370346069,12.1006469726562,12.1023569107056,12.1040678024292,12.1057786941528,12.1074905395508,12.1092023849487,12.110915184021,12.1126279830933,12.1143417358398,12.1160554885864,12.1177701950073,12.1194858551025,12.1212005615234,12.122917175293,12.1246337890625,12.126350402832,12.1280679702759,12.1297855377197,12.1315040588379,12.1332235336304,12.1349420547485,12.1366624832153,12.1383829116821,12.1401033401489,12.14182472229,12.1435470581055,12.1452693939209,12.1469917297363,12.1487150192261,12.1504392623901,12.1521635055542,12.1538877487183,12.1556129455566,12.1573390960693,12.159065246582,12.160792350769,12.1625194549561,12.1642475128174,12.1659755706787,12.16770362854,12.16943359375,12.1711626052856,12.1728925704956,12.1746234893799,12.1763544082642,12.1780862808228,12.1798181533813,12.1815509796143,12.1832847595215,12.1850175857544,12.1867523193359,12.1884870529175,12.190221786499,12.1919574737549,12.1936931610107,12.1954298019409,12.1971673965454,12.1989049911499,12.2006425857544,12.2023811340332,12.2041206359863,12.2058601379395,12.2075996398926,12.2093410491943,12.2110815048218,12.2128229141235,12.2145652770996,12.2163076400757,12.2180509567261,12.2197942733765,12.2215385437012,12.2232828140259,12.2250280380249,12.2267732620239,12.2285194396973,12.2302656173706,12.2320127487183,12.2337608337402,12.2394027709961,12.2486305236816,12.2578725814819,12.2671279907227,12.2763977050781,12.285680770874,12.294979095459,12.3042907714844,12.3136167526245,12.3229560852051,12.3323106765747,12.3416795730591,12.3510618209839,12.3604593276978,12.3698701858521,12.3792953491211,12.3887357711792,12.3981904983521,12.4076585769653,12.4171419143677,12.4266405105591,12.4361524581909,12.4456796646118,12.4552211761475,12.4647769927979
8.34379482269287,8.34365653991699,8.34351825714111,8.34337997436523,8.34324169158936,8.34310340881348,8.3429651260376,8.34282684326172,8.34268856048584,8.34255027770996,8.34241199493408,8.3422737121582,8.34213542938232,8.34199714660645,8.34185886383057,8.34172058105469,8.34158229827881,8.34144401550293,8.34130573272705,8.34116744995117,8.34103012084961,8.34089183807373,8.34075355529785,8.34061527252197,8.34047698974609,8.34033870697021,8.34020042419434,8.34006214141846,8.33992385864258,8.3397855758667,8.36775016784668,8.39784717559814,8.42815971374512,8.4586935043335,8.48944854736328,8.52042770385742,8.55163478851318,8.58307075500488,8.61473846435547,8.64664077758789,8.6787805557251,8.71115970611572,8.74378204345703,8.77664947509766,8.80976390838623,8.84313011169434,8.87674999237061,8.91062641143799,8.94476222991943,8.97916126251221,9.01382541656494,9.04875755310059,9.08396244049072,9.11944198608398,9.15520000457764,9.19123935699463,9.22756290435791,9.26417541503906,9.30107975006104,9.33827877044678,9.37577724456787,9.41357803344727,9.45168113708496,9.49009323120117,9.52881908416748,9.56786251068115,9.60722637176514,9.64691638946533,9.68693542480469,9.72728729248047,9.76797771453857,9.80900955200195,9.85038661956787,9.89211559295654,9.93419933319092,9.97664260864258,11.6196432113647,11.6194505691528,11.6192579269409,11.6190662384033,11.6188735961914,11.6186809539795,11.6184892654419,11.61829662323,11.6181039810181,11.6179122924805,11.6177196502686,11.617527961731,11.617335319519,11.6171426773071,11.6169509887695,11.6167583465576,11.61656665802,11.6163740158081,11.6161823272705,11.6159896850586,11.615797996521,11.6156053543091,11.6135892868042,11.6115036010742,11.6106939315796,11.6115016937256,11.6136722564697,11.6144533157349,11.6142606735229,11.6140689849854,11.6138763427734,11.6136846542358,11.6134920120239,11.6462068557739,11.7047109603882,11.7638063430786,11.8235015869141,11.8598585128784,11.8615016937256,11.8631448745728,11.8647880554199,11.8664321899414,11.8680772781372,11.869722366333,11.8713674545288,11.8730134963989,11.8746604919434,11.8763074874878,11.8779544830322,11.879602432251,11.8812503814697,11.8828992843628,11.8845481872559,11.8861980438232,11.8878479003906,11.8894987106323,11.891149520874,11.89280128479,11.8944530487061,11.8961057662964,11.8977584838867,11.8994112014771,11.901065826416,11.9027194976807,11.9043741226196,11.9060297012329,11.9076852798462,11.9093408584595,11.9109973907471,11.912654876709,11.9143123626709,11.9159698486328,11.917628288269,11.9192876815796,11.9209461212158,11.9226064682007,11.9242668151855,11.9259271621704,11.9275884628296,11.9292497634888,11.9309120178223,11.9325742721558,11.9342374801636,11.9359006881714,11.9375648498535,11.9392290115356,11.9408941268921,11.9425592422485,11.9442253112793,11.9458913803101,11.9475584030151,11.9492254257202,11.9508934020996,11.952561378479,11.9542293548584,11.9558992385864,11.9575681686401,11.9592380523682,11.9609088897705,11.9625797271729,11.9642515182495,11.9659233093262,11.9675951004028,11.9692678451538,11.9709415435791,11.9726152420044,11.9742889404297,11.9759635925293,11.9776391983032,11.9793148040771,11.9809904098511,11.9826669692993,11.9843444824219,11.9860219955444,11.987699508667,11.9893779754639,11.9910564422607,11.9927358627319,11.9944162368774,11.9960966110229,11.9977769851685,11.9994583129883,12.0011396408081,12.0028219223022,12.0045042037964,12.0061874389648,12.0078716278076,12.0095558166504,12.0112400054932,12.0129251480103,12.0146102905273,12.0162963867188,12.0179824829102,12.0196695327759,12.0213565826416,12.0230445861816,12.024733543396,12.026421546936,12.0281114578247,12.0298013687134,12.0314912796021,12.033182144165,12.034873008728,12.0365648269653,12.0382566452026,12.0399494171143,12.0416421890259,12.0433359146118,12.0450296401978,12.046724319458,12.0484199523926,12.0501146316528,12.0518112182617,12.0535068511963,12.0552043914795,12.0569019317627,12.0585994720459,12.0602979660034,12.0619964599609,12.0636959075928,12.0653953552246,12.0670957565308,12.0687961578369,12.0704975128174,12.0721988677979,12.0739011764526,12.0756044387817,12.0773067474365,12.0790109634399,12.0807151794434,12.0824193954468,12.0841245651245,12.0858297348022,12.0875358581543,12.0892419815063,12.0909490585327,12.0926570892334,12.0943651199341,12.0960731506348,12.0977821350098,12.0994911193848,12.1012010574341,12.1029119491577,12.1046228408813,12.106333732605,12.1080455780029,12.1097574234009,12.1114702224731,12.1131839752197,12.1148977279663,12.1166114807129,12.1183261871338,12.120041847229,12.1217575073242,12.1234731674194,12.125189781189,12.1269073486328,12.1286249160767,12.1303424835205,12.132061958313,12.1337804794312,12.1354999542236,12.1372203826904,12.1389408111572,12.1406621932983,12.1423835754395,12.1441049575806,12.145827293396,12.1475505828857,12.1492738723755,12.1509981155396,12.1527223587036,12.154447555542,12.1561727523804,12.1578989028931,12.1596250534058,12.1613521575928,12.1630792617798,12.1648073196411,12.1665353775024,12.1682643890381,12.169994354248,12.1717233657837,12.173454284668,12.1751852035522,12.1769161224365,12.1786479949951,12.180380821228,12.1821136474609,12.1838464736938,12.1855802536011,12.1873149871826,12.1890497207642,12.1907844543457,12.1925201416016,12.1942567825317,12.1959934234619,12.1977310180664,12.1994686126709,12.2012062072754,12.2029457092285,12.2046842575073,12.2064237594604,12.2081642150879,12.2099046707153,12.2116460800171,12.2133884429932,12.2151298522949,12.2168731689453,12.2186164855957,12.2203598022461,12.2221040725708,12.2238483428955,12.2255935668945,12.2273397445679,12.2290859222412,12.2308320999146,12.2325792312622,12.2343273162842,12.2360754013062,12.2451734542847,12.2544097900391,12.2636604309082,12.2729244232178,12.2822036743164,12.2914953231812,12.300802230835,12.3101224899292,12.3194580078125,12.3288068771362,12.3381700515747,12.3475465774536,12.3569383621216,12.3663444519043,12.3757648468018,12.385199546814,12.3946485519409,12.4041118621826,12.4135894775391,12.4230823516846,12.4325885772705
8.34377574920654,8.34363746643066,8.34349918365479,8.34336090087891,8.34322261810303,8.34308433532715,8.34294605255127,8.34280776977539,8.34266948699951,8.34253120422363,8.34239292144775,8.34225463867188,8.342116355896,8.34197807312012,8.34183979034424,8.34170150756836,8.34156322479248,8.34142589569092,8.34128761291504,8.34114933013916,8.34101104736328,8.3408727645874,8.34073448181152,8.34059619903564,8.34045791625977,8.34031963348389,8.34018135070801,8.34004306793213,8.33990478515625,8.33976745605469,8.36775970458984,8.39785671234131,8.4281702041626,8.45870304107666,8.48945808410645,8.5204381942749,8.55164432525635,8.58308029174805,8.61474895477295,8.64665126800537,8.67879104614258,8.7111701965332,8.74379253387451,8.77665996551514,8.80977535247803,8.84314155578613,8.8767614364624,8.91063785552979,8.94477367401123,8.979172706604,9.01383590698242,9.04876899719238,9.08397388458252,9.11945343017578,9.15521144866943,9.19125080108643,9.22757530212402,9.26418781280518,9.30109214782715,9.33829116821289,9.37578964233398,9.41358947753906,9.45169258117676,9.49010467529297,9.52883052825928,9.56787395477295,9.60723781585693,9.64692783355713,9.68694686889648,9.72729969024658,9.76798915863037,9.80902099609375,9.85039901733398,9.89212799072266,9.93421173095703,9.97665405273438,11.6196165084839,11.619423866272,11.6192321777344,11.6190395355225,11.6188468933105,11.6186552047729,11.618462562561,11.6182699203491,11.6180782318115,11.6178855895996,11.617693901062,11.6175012588501,11.6173086166382,11.6171169281006,11.6169242858887,11.6167325973511,11.6165399551392,11.6163482666016,11.6161556243896,11.6159639358521,11.6157712936401,11.6155796051025,11.6153869628906,11.615195274353,11.6144332885742,11.6148109436035,11.6146183013916,11.614426612854,11.6142349243164,11.6140422821045,11.6138505935669,11.613657951355,11.6134662628174,11.64621925354,11.7047233581543,11.7638187408447,11.8235139846802,11.8554649353027,11.8571071624756,11.8587484359741,11.8603916168213,11.8620338439941,11.8636779785156,11.8653211593628,11.8669652938843,11.8686103820801,11.8702554702759,11.871901512146,11.8735475540161,11.8751945495605,11.876841545105,11.8784885406494,11.8801364898682,11.8817853927612,11.8834342956543,11.8850831985474,11.8867330551147,11.8883829116821,11.8900337219238,11.8916854858398,11.8933362960815,11.8949890136719,11.8966417312622,11.8982944488525,11.8999481201172,11.9016017913818,11.9032564163208,11.9049110412598,11.906566619873,11.9082221984863,11.9098787307739,11.9115352630615,11.9131917953491,11.914849281311,11.9165077209473,11.9181661605835,11.919825553894,11.9214849472046,11.9231443405151,11.9248046875,11.9264659881592,11.9281272888184,11.9297885894775,11.931450843811,11.9331140518188,11.9347772598267,11.9364404678345,11.9381046295166,11.9397687911987,11.9414339065552,11.9430999755859,11.9447660446167,11.9464321136475,11.9480991363525,11.9497661590576,11.951434135437,11.9531021118164,11.9547710418701,11.9564399719238,11.9581098556519,11.9597797393799,11.9614505767822,11.9631214141846,11.9647932052612,11.9664649963379,11.9681377410889,11.9698104858398,11.9714841842651,11.9731578826904,11.97483253479,11.9765071868896,11.9781818389893,11.9798574447632,11.9815340042114,11.9832105636597,11.9848880767822,11.9865655899048,11.9882440567017,11.9899225234985,11.9916009902954,11.9932804107666,11.9949607849121,11.9966411590576,11.9983224868774,12.0000038146973,12.0016851425171,12.0033674240112,12.0050506591797,12.0067338943481,12.0084171295166,12.0101013183594,12.0117864608765,12.0134716033936,12.0151567459106,12.0168428421021,12.0185298919678,12.0202169418335,12.0219039916992,12.0235919952393,12.0252809524536,12.026969909668,12.0286588668823,12.030348777771,12.032039642334,12.033730506897,12.03542137146,12.0371131896973,12.0388059616089,12.0404987335205,12.0421915054321,12.0438852310181,12.045578956604,12.0472736358643,12.0489692687988,12.0506649017334,12.052360534668,12.0540571212769,12.0557546615601,12.0574522018433,12.0591497421265,12.060848236084,12.0625476837158,12.0642471313477,12.0659465789795,12.0676469802856,12.0693483352661,12.0710496902466,12.0727510452271,12.0744533538818,12.0761566162109,12.07785987854,12.0795631408691,12.0812673568726,12.0829725265503,12.084677696228,12.0863828659058,12.0880889892578,12.0897960662842,12.0915031433105,12.0932102203369,12.0949182510376,12.0966272354126,12.0983362197876,12.1000461578369,12.1017560958862,12.1034660339355,12.1051769256592,12.1068887710571,12.1086006164551,12.1103134155273,12.1120262145996,12.1137390136719,12.1154537200928,12.1171674728394,12.1188821792603,12.1205978393555,12.1223134994507,12.1240301132202,12.1257467269897,12.1274642944336,12.1291818618774,12.1309003829956,12.1326189041138,12.1343383789062,12.1360578536987,12.1377782821655,12.1394987106323,12.1412200927734,12.1429414749146,12.14466381073,12.1463861465454,12.1481094360352,12.1498327255249,12.151556968689,12.1532821655273,12.1550073623657,12.1567325592041,12.1584587097168,12.1601848602295,12.1619119644165,12.1636400222778,12.1653680801392,12.1670961380005,12.1688251495361,12.1705551147461,12.1722850799561,12.174015045166,12.1757459640503,12.1774778366089,12.1792097091675,12.1809425354004,12.1826753616333,12.1844081878662,12.1861429214478,12.187876701355,12.1896114349365,12.1913471221924,12.1930828094482,12.1948194503784,12.1965560913086,12.1982936859131,12.2000322341919,12.2017698287964,12.2035093307495,12.2052488327026,12.2069883346558,12.2087287902832,12.2104692459106,12.2122106552124,12.2139530181885,12.2156953811646,12.2174377441406,12.219181060791,12.2209253311157,12.2226696014404,12.2244148254395,12.2261600494385,12.2279052734375,12.2296524047852,12.2313985824585,12.2331466674805,12.2348937988281,12.2366428375244,12.2417182922363,12.2509498596191,12.2601947784424,12.2694540023804,12.2787275314331,12.2880144119263,12.2973155975342,12.3066310882568,12.3159608840942,12.3253040313721,12.334662437439,12.3440341949463,12.3534202575684,12.3628206253052,12.3722362518311,12.3816652297974,12.3911085128784,12.4005670547485
