9.46401119232178,9.06656455993652,9.04474353790283,9.0229959487915,9.00578689575195,9.00168514251709,8.99758720397949,8.99349403381348,8.98940467834473,8.98531818389893,8.98123645782471,8.98325538635254,8.98623085021973,8.98920822143555,8.9921875,8.99516868591309,8.99815273284912,9.00113773345947,9.00412559509277,9.01135540008545,9.019944190979,9.02854919433594,9.03717041015625,9.04580879211426,9.05446243286133,9.06313419342041,9.07182121276855,9.08203506469727,9.09808540344238,9.11419296264648,9.13035774230957,9.14657974243164,9.16285800933838,9.1791934967041,9.19558715820312,9.23006057739258,9.26758766174316,9.30542182922363,9.34354877471924,9.47111797332764,9.47130107879639,9.47148418426514,9.47166633605957,9.47184944152832,9.47203254699707,9.47221565246582,9.47239780426025,9.472580909729,9.47276401519775,9.4729471206665,9.47312927246094,9.47331237792969,9.47349548339844,9.47367858886719,9.47386169433594,9.47404479980469,9.47422695159912,9.47441005706787,9.47459316253662,9.47477626800537,9.47495937347412,9.47514247894287,9.4753246307373,9.47550773620605,9.4756908416748,9.47587394714355,9.4760570526123,9.47624015808105,9.4764232635498,9.47660636901855,9.4767894744873,9.47697257995605,9.47715473175049,9.47733783721924,9.47752094268799,9.51050281524658,9.54926776885986,9.58835124969482,9.6277551651001,9.66748428344727,9.70754337310791,9.74793529510498,9.78866481781006,9.82973575592041,9.87115383148193,9.91292095184326,9.95504474639893,9.99752902984619,11.6695899963379,11.6693449020386,11.6690988540649,11.6688537597656,11.6686086654663,11.6683626174927,11.6681175231934,11.6678714752197,11.6676263809204,11.6673812866211,11.6671352386475,11.6668901443481,11.6666450500488,11.6663990020752,11.6661539077759,11.6659088134766,11.6656637191772,11.6654176712036,11.6651725769043,11.664927482605,11.6646823883057,11.664436340332,11.6641912460327,11.6639461517334,11.6637010574341,11.6634559631348,11.6632099151611,11.6629648208618,11.6627197265625,11.6624746322632,11.6622295379639,11.6619844436646,11.6617393493652,11.6681051254272,11.7266416549683,11.7857675552368,11.8454933166504,11.9058275222778,11.9667797088623,12.0283584594727,12.0663757324219,12.0680313110352,12.0696868896484,12.071343421936,12.0730009078979,12.0746583938599,12.0763168334961,12.077974319458,12.0796337127686,12.0812931060791,12.0829524993896,12.0846128463745,12.0862741470337,12.0879344940186,12.0895967483521,12.0912590026855,12.092921257019,12.0945844650269,12.0962476730347,12.0979118347168,12.0995759963989,12.1012411117554,12.1029062271118,12.1045713424683,12.106237411499,12.1079044342041,12.1095714569092,12.1112394332886,12.112907409668,12.1145753860474,12.1162443161011,12.1179141998291,12.1195840835571,12.1212539672852,12.1229248046875,12.1245965957642,12.1262683868408,12.1279401779175,12.1296129226685,12.1312856674194,12.1329593658447,12.1346340179443,12.1363077163696,12.1379833221436,12.1396579742432,12.1413345336914,12.1430101394653,12.1446876525879,12.1463642120361,12.148042678833,12.1497201919556,12.1513996124268,12.1530780792236,12.1547574996948,12.1564378738403,12.1581182479858,12.1597995758057,12.1614809036255,12.1631631851196,12.1648454666138,12.1665277481079,12.1682109832764,12.1698951721191,12.1715793609619,12.1732635498047,12.1749486923218,12.1766347885132,12.1783208847046,12.180006980896,12.1816940307617,12.1833820343018,12.1850700378418,12.1867580413818,12.1884469985962,12.1901369094849,12.1918268203735,12.1935167312622,12.1952075958252,12.1968984603882,12.1985902786255,12.2002830505371,12.2019748687744,12.2036685943604,12.2053623199463,12.2070560455322,12.2087507247925,12.2104454040527,12.2121410369873,12.2138366699219,12.2155332565308,12.2172298431396,12.2189273834229,12.2206258773804,12.2223234176636,12.2240228652954,12.2257213592529,12.2335844039917,12.2428274154663,12.2520837783813,12.2613534927368,12.2706384658813,12.2799367904663,12.289249420166,12.2985754013062,12.3079166412354,12.317271232605,12.3266410827637,12.3360242843628,12.345422744751,12.3548345565796,12.3642606735229,12.3737020492554,12.3831577301025,12.3926267623901,12.4021110534668,12.4116106033325,12.4211235046387,12.4306516647339,12.4401941299438,12.4497518539429,12.4593238830566,12.4689102172852,12.4785118103027,12.4881277084351,12.4977588653564,12.5074052810669,12.5170660018921,12.5267419815063,12.5364322662354,12.5461387634277,12.5558595657349,12.5655956268311,12.575345993042,12.5851125717163,12.5948934555054,12.6046905517578,12.614501953125,12.6243295669556,12.6341714859009,12.6440296173096,12.6539030075073,12.6637916564941,12.67369556427,12.683614730835,12.6935501098633,12.7035007476807,12.7134666442871,12.7234487533569,12.7334470748901,12.7434597015381,12.7534894943237,12.7635345458984,12.7735948562622,12.7836713790894,12.7937641143799,12.8038721084595,12.8139972686768,12.8241376876831,12.8342943191528,12.8444671630859,12.8546552658081,12.864860534668,12.8750820159912,12.8853197097778,12.8955726623535,12.9058427810669,12.9161291122437,12.9264326095581,12.9367513656616,12.9470872879028,12.9574403762817,12.9678087234497,12.9781942367554,12.9885959625244,12.9990148544312,13.0094509124756,13.0199031829834,13.0303726196289,13.0408582687378,13.0513610839844,13.0600137710571,13.0678768157959,13.0902500152588,13.1064186096191,13.1226272583008,13.1388750076294,13.1551637649536,13.1714935302734,13.1878633499146,13.2042741775513,13.2207250595093,13.2372179031372,13.2537517547607,13.2703266143799,13.2869424819946,13.3036012649536,13.3203010559082,13.3370428085327,13.3538274765015,13.3706541061401,13.3875226974487,13.4044342041016,13.4213886260986,13.4383859634399,13.4554262161255,13.4725093841553,13.4896364212036,13.5068073272705,13.524022102356,13.54128074646,13.5585823059082,13.5759296417236,13.5933208465576,13.6107568740845,13.6282367706299,13.6457624435425,13.6633329391479,13.6809492111206,13.6986103057861,13.7163181304932,13.7340707778931,13.7518692016602,13.7697153091431,13.7876062393188,13.8055448532104,13.8235292434692,13.8415613174438,13.85964012146,13.8777656555176,13.8959398269653,13.9141607284546,13.932430267334,13.9507474899292,13.9691123962402,13.9875268936157,14.005989074707,14.0244998931885,14.0430603027344,14.0616693496704,14.0803289413452,14.0990371704102,14.1177949905396,14.1366033554077,14.1554613113403,14.174370765686,14.1933298110962,14.2123394012451,14.2314004898071,14.2505130767822,14.2696762084961,14.2888917922974,14.3081588745117,14.3274784088135,14.3468494415283,14.3662738800049,14.3857498168945,14.4052791595459,14.424861907959,14.4444971084595,14.464186668396,14.4839296340942,14.5037269592285,14.5235776901245,14.5434837341309,14.5638780593872,14.5929412841797
9.05879402160645,9.03701114654541,9.01531314849854,8.99515533447266,8.99106311798096,8.98697471618652,8.98289012908936,8.97881031036377,8.97473430633545,8.97066116333008,8.96878623962402,8.97175216674805,8.97471904754639,8.97768878936768,8.9806604385376,8.98363399505615,8.98661041259766,8.98958778381348,8.99256801605225,8.99957084655762,9.00813674926758,9.01671981811523,9.02531814575195,9.03393363952637,9.04256534576416,9.05121421813965,9.05987930297852,9.06856060028076,9.08205986022949,9.09811019897461,9.11421775817871,9.13038158416748,9.14660358428955,9.16288375854492,9.17921924591064,9.19561290740967,9.23033237457275,9.26786231994629,9.30569744110107,9.34384346008301,9.3910436630249,9.3912239074707,9.39140319824219,9.39158344268799,9.39176273345947,9.39194297790527,9.39212226867676,9.39230251312256,9.39248180389404,9.39266204833984,9.39284133911133,9.39302158355713,9.39320087432861,9.39338111877441,9.39356136322021,9.3937406539917,9.3939208984375,9.39410018920898,9.39428043365479,9.39445972442627,9.39463996887207,9.39482021331787,9.39499950408936,9.39517974853516,9.39535999298096,9.39553928375244,9.39571952819824,9.39589977264404,9.39607906341553,9.39625930786133,9.39643955230713,9.39661884307861,9.39679908752441,9.43399333953857,9.47213649749756,9.51058959960938,9.54935550689697,9.58843898773193,9.62784385681152,9.66757392883301,9.70763397216797,9.74802589416504,9.78875637054443,9.8298282623291,9.87124729156494,9.91301536560059,9.95514011383057,9.99762439727783,11.669620513916,11.6693754196167,11.6691293716431,11.6688842773438,11.6686382293701,11.6683931350708,11.6681480407715,11.6679019927979,11.6676568984985,11.6674118041992,11.6671657562256,11.6669206619263,11.666675567627,11.6664295196533,11.666184425354,11.6659393310547,11.6656932830811,11.6654481887817,11.6652030944824,11.6649580001831,11.6647119522095,11.6644668579102,11.6642217636108,11.6639766693115,11.6637315750122,11.6634855270386,11.6632404327393,11.6629953384399,11.6627502441406,11.6625051498413,11.662260055542,11.6620149612427,11.6617698669434,11.6682357788086,11.7267732620239,11.7859010696411,11.845627784729,11.9059638977051,11.9669170379639,12.0284976959229,12.0618953704834,12.0635499954224,12.0652046203613,12.0668601989746,12.0685157775879,12.0701723098755,12.0718288421631,12.073486328125,12.0751438140869,12.0768022537231,12.0784606933594,12.0801191329956,12.0817794799805,12.083438873291,12.0850992202759,12.0867605209351,12.0884218215942,12.0900831222534,12.0917453765869,12.0934076309204,12.0950708389282,12.0967350006104,12.0983991622925,12.1000633239746,12.1017284393311,12.1033935546875,12.1050596237183,12.106725692749,12.1083927154541,12.1100597381592,12.1117277145386,12.113395690918,12.1150646209717,12.1167335510254,12.1184034347534,12.1200733184814,12.1217432022095,12.1234140396118,12.1250858306885,12.1267576217651,12.1284303665161,12.1301031112671,12.1317758560181,12.1334495544434,12.135124206543,12.1367988586426,12.1384735107422,12.1401491165161,12.14182472229,12.1435012817383,12.1451787948608,12.1468563079834,12.148533821106,12.1502122879028,12.1518907546997,12.1535701751709,12.1552495956421,12.1569299697876,12.1586103439331,12.1602916717529,12.1619729995728,12.1636552810669,12.165337562561,12.1670207977295,12.1687040328979,12.1703882217407,12.1720724105835,12.1737575531006,12.1754426956177,12.1771287918091,12.1788148880005,12.1805009841919,12.1821880340576,12.1838760375977,12.1855640411377,12.1872529983521,12.1889419555664,12.1906309127808,12.1923217773438,12.1940116882324,12.1957025527954,12.1973943710327,12.19908618927,12.2007780075073,12.2024707794189,12.2041645050049,12.2058582305908,12.2075519561768,12.209246635437,12.2109422683716,12.2126379013062,12.2143335342407,12.2160301208496,12.2177276611328,12.219425201416,12.2211227416992,12.2228212356567,12.2245197296143,12.2262191772461,12.2302684783936,12.2395057678223,12.2487564086914,12.2580223083496,12.2673015594482,12.2765951156616,12.2859020233154,12.2952241897583,12.3045597076416,12.3139095306396,12.3232736587524,12.33265209198,12.3420448303223,12.3514518737793,12.3608732223511,12.3703088760376,12.3797588348389,12.3892240524292,12.39870262146,12.4081964492798,12.4177045822144,12.4272270202637,12.4367647171021,12.4463167190552,12.455883026123,12.46546459198,12.475061416626,12.4846715927124,12.4942979812622,12.5039386749268,12.5135936737061,12.5232639312744,12.5329494476318,12.5426502227783,12.5523653030396,12.5620956420898,12.5718412399292,12.5816020965576,12.5913782119751,12.6011695861816,12.6109752655029,12.6207971572876,12.6306343078613,12.6404867172241,12.650354385376,12.6602373123169,12.6701354980469,12.6800498962402,12.6899795532227,12.6999244689941,12.7098846435547,12.7198610305786,12.7298536300659,12.7398614883423,12.7498846054077,12.7599239349365,12.7699785232544,12.78005027771,12.7901363372803,12.8002395629883,12.8103580474854,12.8204927444458,12.8306436538696,12.8408107757568,12.8509931564331,12.8611927032471,12.8714084625244,12.8816394805908,12.8918876647949,12.9021520614624,12.9124326705933,12.9227294921875,12.9330425262451,12.9433727264404,12.9537191390991,12.9640817642212,12.974461555481,12.9848575592041,12.9952707290649,13.0057001113892,13.0161466598511,13.0266094207764,13.0370893478394,13.04758644104,13.0563983917236,13.0755071640015,13.0916385650635,13.1078109741211,13.1240224838257,13.1402750015259,13.156566619873,13.1728992462158,13.1892728805542,13.2056865692139,13.2221422195435,13.2386379241943,13.2551755905151,13.2717533111572,13.2883739471436,13.3050355911255,13.3217391967773,13.3384847640991,13.3552722930908,13.3721027374268,13.3889751434326,13.4058904647827,13.4228487014771,13.4398498535156,13.4568929672241,13.4739809036255,13.4911117553711,13.5082855224609,13.5255041122437,13.5427665710449,13.5600728988647,13.5774230957031,13.5948181152344,13.6122579574585,13.6297426223755,13.6472721099854,13.6648464202881,13.682466506958,13.7001314163208,13.7178430557251,13.7355995178223,13.7534027099609,13.7712516784668,13.7891473770142,13.8070888519287,13.8250780105591,13.843113899231,13.8611965179443,13.8793268203735,13.8975048065186,13.9157304763794,13.9340038299561,13.9523248672485,13.9706945419312,13.9891119003296,14.0075788497925,14.0260944366455,14.0446586608887,14.0632724761963,14.0819358825684,14.1006479263306,14.1194105148315,14.138222694397,14.1570854187012,14.1759986877441,14.1949625015259,14.2139768600464,14.23304271698,14.2521591186523,14.2713270187378,14.2905464172363,14.3098182678223,14.3291416168213,14.3485174179077,14.3679466247559,14.3874273300171,14.40696144104,14.4265480041504,14.4461889266968,14.4658823013306,14.4856300354004,14.5054321289062,14.5252876281738
9.0292911529541,9.007643699646,8.98607349395752,8.98046588897705,8.97638702392578,8.97231292724609,8.96824169158936,8.96417427062988,8.96011161804199,8.95605182647705,8.95731925964355,8.96027755737305,8.96323776245117,8.96619987487793,8.969162940979,8.97212886810303,8.97509765625,8.97806835174561,8.98104000091553,8.98781776428223,8.99636077880859,9.00492095947266,9.0134973526001,9.02209091186523,9.03069972991943,9.03932571411133,9.0479679107666,9.05662631988525,9.06608963012695,9.0820837020874,9.09813404083252,9.11424160003662,9.13040637969971,9.14662837982178,9.16290760040283,9.17924499511719,9.19563961029053,9.23060417175293,9.2681360244751,9.30597400665283,9.31213569641113,9.31231212615967,9.3124885559082,9.31266593933105,9.31284236907959,9.31301879882812,9.31319618225098,9.31337261199951,9.31354904174805,9.3137264251709,9.31390285491943,9.31407928466797,9.31425666809082,9.31443309783936,9.31461048126221,9.31478691101074,9.31496429443359,9.31514072418213,9.31531715393066,9.31549453735352,9.31567096710205,9.3158483505249,9.31602478027344,9.31620216369629,9.31637859344482,9.31655597686768,9.31673240661621,9.31690979003906,9.3170862197876,9.31726360321045,9.32146835327148,9.35870552062988,9.396240234375,9.43407821655273,9.47222232818604,9.51067638397217,9.54944324493408,9.58852767944336,9.62793254852295,9.66766357421875,9.70772361755371,9.74811744689941,9.78884887695312,9.82992172241211,9.87134075164795,9.91310977935791,9.95523548126221,9.99772071838379,11.6696510314941,11.6694059371948,11.6691598892212,11.6689147949219,11.6686687469482,11.6684236526489,11.6681785583496,11.667932510376,11.6676874160767,11.667441368103,11.6671962738037,11.6669511795044,11.6667051315308,11.6664600372314,11.6662149429321,11.6659698486328,11.6657238006592,11.6654787063599,11.6652336120605,11.6649875640869,11.6647424697876,11.6644973754883,11.664252281189,11.6640071868896,11.663761138916,11.6635160446167,11.6632709503174,11.6630258560181,11.6627807617188,11.6625356674194,11.6622896194458,11.6620445251465,11.6617994308472,11.6683664321899,11.7269058227539,11.7860345840454,11.8457632064819,11.906099319458,11.9670543670654,12.0286359786987,12.0574188232422,12.0590715408325,12.0607261657715,12.0623798370361,12.0640344619751,12.0656890869141,12.0673446655273,12.0690011978149,12.0706577301025,12.0723142623901,12.0739717483521,12.075629234314,12.0772876739502,12.0789461135864,12.080605506897,12.0822649002075,12.0839252471924,12.0855855941772,12.0872468948364,12.0889081954956,12.0905694961548,12.0922327041626,12.0938949584961,12.0955581665039,12.097222328186,12.0988864898682,12.1005506515503,12.1022157669067,12.1038818359375,12.1055479049683,12.107213973999,12.1088809967041,12.1105480194092,12.1122159957886,12.113883972168,12.1155529022217,12.1172227859497,12.1188917160034,12.1205625534058,12.1222324371338,12.1239042282104,12.1255750656128,12.1272478103638,12.1289196014404,12.1305923461914,12.1322660446167,12.133939743042,12.1356143951416,12.1372890472412,12.1389636993408,12.1406402587891,12.142315864563,12.1439924240112,12.1456699371338,12.1473474502563,12.1490249633789,12.1507034301758,12.152382850647,12.1540622711182,12.1557416915894,12.1574220657349,12.1591024398804,12.1607837677002,12.1624660491943,12.1641483306885,12.1658306121826,12.1675138473511,12.1691970825195,12.1708812713623,12.1725654602051,12.1742506027222,12.1759366989136,12.1776218414307,12.1793088912964,12.1809949874878,12.1826829910278,12.1843700408936,12.1860589981079,12.1877470016479,12.1894369125366,12.191125869751,12.192816734314,12.1945066452026,12.1961975097656,12.1978893280029,12.1995811462402,12.2012739181519,12.2029666900635,12.2046604156494,12.2063541412354,12.2080488204956,12.2097434997559,12.2114381790161,12.2131338119507,12.2148303985596,12.2165269851685,12.2182245254517,12.2199220657349,12.2216196060181,12.2233190536499,12.2250175476074,12.2267169952393,12.2284173965454,12.2361850738525,12.2454319000244,12.2546920776367,12.2639665603638,12.2732543945312,12.2825574874878,12.2918739318848,12.3012046813965,12.3105487823486,12.3199081420898,12.3292818069458,12.3386688232422,12.3480710983276,12.3574867248535,12.3669176101685,12.3763628005981,12.3858222961426,12.3952960968018,12.4047842025757,12.4142875671387,12.4238052368164,12.4333372116089,12.4428834915161,12.4524450302124,12.4620208740234,12.4716119766235,12.4812173843384,12.4908380508423,12.5004739761353,12.5101232528687,12.5197887420654,12.529468536377,12.5391635894775,12.5488739013672,12.5585985183716,12.5683393478394,12.5780944824219,12.5878648757935,12.5976505279541,12.6074514389038,12.6172676086426,12.6270990371704,12.6369457244873,12.6468076705933,12.6566848754883,12.6665782928467,12.6764869689941,12.6864109039307,12.6963500976562,12.7063055038452,12.7162761688232,12.7262620925903,12.7362642288208,12.7462816238403,12.7563152313232,12.7663650512695,12.7764301300049,12.7865114212036,12.7966079711914,12.8067216873169,12.8168506622314,12.8269958496094,12.8371562957764,12.8473339080811,12.8575267791748,12.8677368164062,12.8779621124268,12.888204574585,12.8984632492065,12.9087371826172,12.9190282821655,12.9293365478516,12.9396600723267,12.9500007629395,12.9603576660156,12.9707307815552,12.9811210632324,12.9915285110474,13.0019512176514,13.0123920440674,13.0228490829468,13.0333232879639,13.0414342880249,13.047438621521,13.0616312026978,13.0930280685425,13.109203338623,13.1254186630249,13.141674041748,13.1579694747925,13.1743059158325,13.1906824111938,13.2070999145508,13.2235584259033,13.2400579452515,13.2565994262695,13.2731809616089,13.2898044586182,13.3064699172974,13.3231773376465,13.3399267196655,13.3567180633545,13.3735523223877,13.3904285430908,13.4073476791382,13.4243087768555,13.4413137435913,13.4583606719971,13.4754524230957,13.4925870895386,13.5097646713257,13.5269870758057,13.5442523956299,13.5615634918213,13.5789175033569,13.5963163375854,13.6137599945068,13.6312475204468,13.6487817764282,13.6663599014282,13.6839838027954,13.7016525268555,13.719367980957,13.7371282577515,13.7549352645874,13.7727890014648,13.7906885147095,13.8086347579956,13.8266277313232,13.8446674346924,13.862753868103,13.8808879852295,13.8990697860718,13.9173002243042,13.9355773925781,13.9539022445679,13.9722757339478,13.9906988143921,14.0091695785522,14.0276889801025,14.046257019043,14.0648756027222,14.0835428237915,14.1022596359253,14.1210260391235,14.1398429870605,14.1587104797363,14.1776275634766,14.1965951919556,14.2156143188477,14.2346839904785,14.2538051605225,14.2729778289795,14.2922019958496,14.3114776611328,14.3308057785034,14.3501863479614,14.3696193695068,14.3891048431396,14.4086437225342,14.4282350540161,14.4478797912598,14.4675788879395
8.99997901916504,8.97845363616943,8.96989345550537,8.96582508087158,8.96175956726074,8.95769786834717,8.95363998413086,8.94958591461182,8.94553661346436,8.94293403625488,8.94588184356689,8.94883251190186,8.95178508758545,8.95473957061768,8.95769596099854,8.96065425872803,8.96361446380615,8.96657752990723,8.96954154968262,8.97609424591064,8.98461627960205,8.99315357208252,9.00170803070068,9.01027870178223,9.01886463165283,9.02746772766113,9.03608703613281,9.04472351074219,9.05337619781494,9.06611347198486,9.08210754394531,9.09815788269043,9.11426544189453,9.13043022155762,9.14665222167969,9.16293239593506,9.17926979064941,9.19566535949707,9.23087596893311,9.23436832427979,9.23454189300537,9.23471546173096,9.23488903045654,9.23506355285645,9.23523712158203,9.23541069030762,9.2355842590332,9.23575878143311,9.23593235015869,9.23610591888428,9.23628044128418,9.23645401000977,9.23662757873535,9.23680210113525,9.23697566986084,9.23714923858643,9.23732376098633,9.23749732971191,9.2376708984375,9.2378454208374,9.23801898956299,9.23819255828857,9.23836708068848,9.23854064941406,9.23871517181396,9.23888874053955,9.23906230926514,9.23923683166504,9.24795818328857,9.28460884094238,9.32155132293701,9.35878944396973,9.39632511138916,9.43416404724121,9.47230815887451,9.51076316833496,9.54953002929688,9.58861541748047,9.62802219390869,9.66775321960449,9.70781421661377,9.74820899963379,9.7889404296875,9.8300142288208,9.87143421173096,9.91320514678955,9.95533180236816,9.99781703948975,11.6696815490723,11.6694355010986,11.6691904067993,11.6689453125,11.6686992645264,11.6684541702271,11.6682081222534,11.6679630279541,11.6677179336548,11.6674718856812,11.6672267913818,11.6669816970825,11.6667356491089,11.6664905548096,11.6662454605103,11.6659994125366,11.6657543182373,11.665509223938,11.6652641296387,11.665018081665,11.6647729873657,11.6645278930664,11.6642827987671,11.6640367507935,11.6637916564941,11.6635465621948,11.6633014678955,11.6630563735962,11.6628112792969,11.6625652313232,11.6623201370239,11.6620750427246,11.6618299484253,11.6684970855713,11.7270374298096,11.7861680984497,11.8458976745605,11.9062356948853,11.967191696167,12.0287752151489,12.0529451370239,12.0545978546143,12.0562496185303,12.0579032897949,12.0595560073853,12.0612096786499,12.0628643035889,12.0645189285278,12.0661745071411,12.0678300857544,12.0694856643677,12.0711421966553,12.0727996826172,12.0744571685791,12.076114654541,12.0777730941772,12.0794324874878,12.081090927124,12.0827512741089,12.0844116210938,12.0860719680786,12.0877332687378,12.089394569397,12.0910568237305,12.092719078064,12.0943822860718,12.0960454940796,12.0977096557617,12.0993738174438,12.101037979126,12.1027040481567,12.1043691635132,12.1060352325439,12.107702255249,12.1093692779541,12.1110363006592,12.1127042770386,12.1143732070923,12.116042137146,12.1177110671997,12.1193809509277,12.1210517883301,12.1227216720581,12.1243934631348,12.1260652542114,12.1277370452881,12.1294097900391,12.13108253479,12.1327562332153,12.1344299316406,12.1361045837402,12.1377792358398,12.1394548416138,12.1411304473877,12.1428070068359,12.1444835662842,12.1461610794067,12.1478385925293,12.1495170593262,12.151195526123,12.1528739929199,12.1545534133911,12.1562337875366,12.1579141616821,12.159595489502,12.1612768173218,12.1629581451416,12.1646404266357,12.1663236618042,12.1680068969727,12.1696901321411,12.1713743209839,12.173059463501,12.1747446060181,12.1764297485352,12.1781158447266,12.1798028945923,12.1814889907837,12.1831769943237,12.1848649978638,12.1865530014038,12.1882419586182,12.1899309158325,12.1916208267212,12.1933116912842,12.1950016021729,12.1966934204102,12.1983852386475,12.2000770568848,12.2017698287964,12.203462600708,12.2051563262939,12.2068500518799,12.2085447311401,12.2102394104004,12.211935043335,12.2136306762695,12.2153272628784,12.2170238494873,12.2187213897705,12.2204189300537,12.2221174240112,12.2238159179688,12.2255153656006,12.2272148132324,12.2289152145386,12.2328672409058,12.2421083450317,12.2513637542725,12.2606334686279,12.2699165344238,12.2792139053345,12.2885255813599,12.2978506088257,12.3071908950806,12.3165445327759,12.3259124755859,12.3352947235107,12.3446922302246,12.3541030883789,12.3635282516479,12.3729677200317,12.3824224472046,12.3918914794922,12.4013738632202,12.4108715057373,12.4203844070435,12.42991065979,12.4394521713257,12.4490089416504,12.4585800170898,12.468165397644,12.477765083313,12.4873809814453,12.4970102310181,12.5066556930542,12.5163154602051,12.5259895324707,12.5356798171997,12.5453844070435,12.555103302002,12.5648384094238,12.5745878219604,12.5843534469604,12.5941333770752,12.603928565979,12.6137390136719,12.6235656738281,12.6334066390991,12.6432628631592,12.6531352996826,12.6630229949951,12.6729249954224,12.6828441619873,12.692777633667,12.7027273178101,12.7126922607422,12.7226734161377,12.7326698303223,12.7426815032959,12.7527093887329,12.7627534866333,12.7728128433228,12.7828884124756,12.7929792404175,12.8030862808228,12.8132095336914,12.8233489990234,12.8335046768188,12.8436756134033,12.8538637161255,12.8640670776367,12.8742876052856,12.8845233917236,12.8947763442993,12.9050445556641,12.9153299331665,12.9256315231323,12.9359493255615,12.9462842941284,12.9566354751587,12.9670028686523,12.9773864746094,12.9877882003784,12.9982051849365,13.0086393356323,13.0190906524658,13.0265045166016,13.0324954986572,13.0384922027588,13.0444936752319,13.0944175720215,13.1105966567993,13.1268148422241,13.1430730819702,13.1593732833862,13.1757125854492,13.1920928955078,13.208514213562,13.2249765396118,13.2414789199829,13.2580232620239,13.2746095657349,13.2912359237671,13.3079051971436,13.3246164321899,13.3413686752319,13.3581638336182,13.3750019073486,13.391881942749,13.4088039398193,13.4257688522339,13.442777633667,13.4598293304443,13.4769239425659,13.4940624237061,13.5112438201904,13.5284700393677,13.5457401275635,13.5630531311035,13.5804119110107,13.5978145599365,13.6152620315552,13.6327543258667,13.6502914428711,13.6678733825684,13.6855010986328,13.7031745910645,13.720892906189,13.738657951355,13.7564687728882,13.7743263244629,13.7922296524048,13.8101797103882,13.8281764984131,13.8462209701538,13.8643112182617,13.8824501037598,13.9006357192993,13.9188690185547,13.9371509552002,13.9554805755615,13.973858833313,13.9922847747803,14.0107593536377,14.0292835235596,14.0478563308716,14.066478729248,14.085150718689,14.10387134552,14.1226425170898,14.1414632797241,14.1603345870972,14.179256439209,14.1982288360596,14.2172527313232,14.2363262176514,14.2554521560669,14.2746286392212,14.2938575744629,14.3131380081177,14.3324708938599,14.3518552780151,14.3712930679321,14.3907833099365,14.4103260040283
8.97084617614746,8.95934677124023,8.95528697967529,8.95123100280762,8.94717884063721,8.94313049316406,8.93908596038818,8.93504524230957,8.93100929260254,8.93153285980225,8.93447399139404,8.93741703033447,8.94036197662354,8.94330883026123,8.94625759124756,8.94920825958252,8.95216083526611,8.95511531829834,8.95807266235352,8.9644021987915,8.97290134429932,8.98141765594482,8.98994922637939,8.99849700927734,9.00706100463867,9.01564121246338,9.02423858642578,9.03285217285156,9.04148101806641,9.05019950866699,9.06613731384277,9.08213138580322,9.09818267822266,9.11429023742676,9.13045501708984,9.14667701721191,9.15754699707031,9.15771770477295,9.15788841247559,9.15806007385254,9.15823078155518,9.15840148925781,9.15857219696045,9.1587438583374,9.15891456604004,9.15908527374268,9.15925598144531,9.15942764282227,9.1595983505249,9.15976905822754,9.15993976593018,9.16011142730713,9.16028213500977,9.1604528427124,9.16062450408936,9.16079521179199,9.16096591949463,9.16113758087158,9.16130828857422,9.16147994995117,9.16165065765381,9.16182136535645,9.1619930267334,9.16216373443604,9.16233539581299,9.16250610351562,9.17559909820557,9.21167755126953,9.24804019927979,9.28469181060791,9.32163524627686,9.35887336730957,9.39640998840332,9.43424892425537,9.4723949432373,9.51084899902344,9.54961776733398,9.58870410919189,9.62811088562012,9.66784286499023,9.70790481567383,9.74829959869385,9.78903198242188,9.83010673522949,9.87152767181396,9.91329956054688,9.9554271697998,9.9979133605957,11.6697120666504,11.6694660186768,11.6692209243774,11.6689748764038,11.6687297821045,11.6684846878052,11.6682386398315,11.6679935455322,11.6677484512329,11.6675024032593,11.66725730896,11.6670112609863,11.666766166687,11.6665210723877,11.6662759780884,11.6660299301147,11.6657848358154,11.6655397415161,11.6652936935425,11.6650485992432,11.6648035049438,11.6645584106445,11.6643123626709,11.6640672683716,11.6638221740723,11.6635770797729,11.6633319854736,11.6630868911743,11.6628408432007,11.6625957489014,11.6623506546021,11.6621055603027,11.6618604660034,11.668628692627,11.7271699905396,11.786301612854,11.8460321426392,11.9063720703125,11.9673290252686,12.0289144515991,12.0484752655029,12.0501260757446,12.0517778396606,12.0534296035767,12.0550813674927,12.056734085083,12.0583868026733,12.060040473938,12.0616941452026,12.0633487701416,12.0650033950806,12.0666589736938,12.0683145523071,12.0699710845947,12.0716276168823,12.0732851028442,12.0749425888062,12.0766000747681,12.0782594680786,12.0799179077148,12.0815773010254,12.0832376480103,12.0848979949951,12.08655834198,12.0882196426392,12.0898809432983,12.0915431976318,12.0932064056396,12.0948686599731,12.0965328216553,12.0981969833374,12.0998611450195,12.101526260376,12.1031913757324,12.1048574447632,12.1065235137939,12.108190536499,12.1098575592041,12.1115245819092,12.1131935119629,12.1148614883423,12.116530418396,12.118200302124,12.1198701858521,12.1215400695801,12.1232118606567,12.1248826980591,12.1265544891357,12.1282272338867,12.1298999786377,12.1315727233887,12.133246421814,12.1349201202393,12.1365947723389,12.1382703781128,12.1399450302124,12.1416215896606,12.1432981491089,12.1449747085571,12.1466522216797,12.1483297348022,12.1500082015991,12.151686668396,12.1533660888672,12.1550455093384,12.1567258834839,12.1584062576294,12.1600875854492,12.161768913269,12.1634511947632,12.1651334762573,12.1668167114258,12.1684999465942,12.1701831817627,12.1718673706055,12.1735525131226,12.1752376556396,12.1769237518311,12.1786098480225,12.1802959442139,12.1819839477539,12.1836709976196,12.1853590011597,12.187047958374,12.1887369155884,12.1904258728027,12.1921157836914,12.1938066482544,12.1954975128174,12.1971883773804,12.1988801956177,12.2005729675293,12.2022657394409,12.2039585113525,12.2056522369385,12.2073459625244,12.2090406417847,12.2107362747192,12.2124319076538,12.2141275405884,12.2158241271973,12.2175207138062,12.2192182540894,12.2209167480469,12.2226152420044,12.2243137359619,12.2260131835938,12.2277126312256,12.2294130325317,12.2311134338379,12.238787651062,12.2480373382568,12.2573013305664,12.2665796279907,12.2758722305298,12.2851781845093,12.2944993972778,12.3038339614868,12.3131828308105,12.322546005249,12.3319225311279,12.3413143157959,12.3507204055786,12.3601408004761,12.3695755004883,12.3790245056152,12.3884878158569,12.3979663848877,12.4074583053589,12.4169654846191,12.4264869689941,12.4360237121582,12.4455738067627,12.4551401138306,12.4647197723389,12.4743146896362,12.4839248657227,12.4935493469238,12.5031890869141,12.512843132019,12.5225124359131,12.5321969985962,12.541895866394,12.551609992981,12.5613393783569,12.571084022522,12.5808439254761,12.5906181335449,12.6004085540771,12.6102132797241,12.6200342178345,12.6298694610596,12.639720916748,12.6495866775513,12.6594686508179,12.6693658828735,12.6792793273926,12.6892070770264,12.6991510391235,12.7091112136841,12.7190856933594,12.729076385498,12.7390832901001,12.7491054534912,12.7591438293457,12.7691974639893,12.7792673110962,12.7893524169922,12.7994537353516,12.8095712661743,12.8197050094604,12.82985496521,12.8400201797485,12.8502016067505,12.8604001998901,12.8706140518188,12.8808441162109,12.8910913467407,12.9013538360596,12.9116334915161,12.921929359436,12.9322414398193,12.942569732666,12.9529151916504,12.9632768630981,12.9736547470093,12.9840497970581,12.9944610595703,13.0048894882202,13.0116090774536,13.0175867080688,13.0235691070557,13.0295572280884,13.035551071167,13.0830907821655,13.1119890213013,13.1282110214233,13.144474029541,13.16077709198,13.1771192550659,13.1935033798218,13.2099275588989,13.226393699646,13.2428998947144,13.2594480514526,13.2760372161865,13.2926683425903,13.3093404769897,13.3260555267334,13.3428115844727,13.3596105575562,13.3764514923096,13.3933353424072,13.4102611541748,13.4272298812866,13.444242477417,13.4612970352173,13.4783964157104,13.4955377578735,13.5127239227295,13.5299530029297,13.5472269058228,13.5645446777344,13.5819063186646,13.5993127822876,13.6167640686035,13.6342601776123,13.651801109314,13.6693878173828,13.6870193481445,13.7046966552734,13.7224187850952,13.7401876449585,13.758002281189,13.7758636474609,13.7937717437744,13.8117256164551,13.8297262191772,13.8477745056152,13.8658695220947,13.88401222229,13.9022016525269,13.9204397201538,13.9387254714966,13.9570589065552,13.9754409790039,13.9938716888428,14.0123510360718,14.0308790206909,14.0494556427002,14.0680818557739,14.0867586135864,14.1054840087891,14.1242589950562,14.143084526062,14.1619596481323,14.1808862686157,14.1998624801636,14.2188901901245,14.2379693984985,14.2570991516113,14.2762804031372,14.2955131530762,14.3147983551025,14.334135055542,14.3535251617432
8.94882392883301,8.94477367401123,8.94072818756104,8.93668556213379,8.93264675140381,8.92861080169678,8.92457962036133,8.92055225372314,8.91722965240479,8.92016124725342,8.92309474945068,8.92603015899658,8.92896747589111,8.93190670013428,8.93484783172607,8.9377908706665,8.94073677062988,8.94368362426758,8.94663333892822,8.95274066925049,8.96121788024902,8.96971130371094,8.97822093963623,8.98674583435059,8.99528789520264,9.00384616851807,9.01242065429688,9.02101135253906,9.02961826324463,9.03824234008789,9.0502233505249,9.06616115570068,9.08182525634766,9.08199310302734,9.08216190338135,9.08232975006104,9.08249759674072,9.08266544342041,9.08283424377441,9.0830020904541,9.08316993713379,9.08333873748779,9.08350658416748,9.08367443084717,9.08384323120117,9.08401107788086,9.08417892456055,9.08434772491455,9.08451557159424,9.08468437194824,9.08485221862793,9.08502006530762,9.08518886566162,9.08535671234131,9.085524559021,9.085693359375,9.08586120605469,9.08603000640869,9.08619785308838,9.08636665344238,9.08653450012207,9.08670330047607,9.08687114715576,9.08703899383545,9.10436344146729,9.13988208770752,9.17567920684814,9.21175861358643,9.248122215271,9.28477478027344,9.32171821594238,9.35895729064941,9.39649486541748,9.43433475494385,9.47248077392578,9.51093578338623,9.54970550537109,9.588791847229,9.62819957733154,9.66793251037598,9.70799541473389,9.74839115142822,9.78912448883057,9.83019924163818,9.87162113189697,9.9133939743042,9.95552253723145,9.99800968170166,11.6697425842285,11.6694965362549,11.6692514419556,11.6690053939819,11.6687602996826,11.6685152053833,11.6682691574097,11.6680240631104,11.6677780151367,11.6675329208374,11.6672878265381,11.6670417785645,11.6667966842651,11.6665515899658,11.6663055419922,11.6660604476929,11.6658153533936,11.6655702590942,11.6653242111206,11.6650791168213,11.664834022522,11.6645889282227,11.664342880249,11.6640977859497,11.6638526916504,11.6636075973511,11.6633625030518,11.6631164550781,11.6628713607788,11.6626262664795,11.6623811721802,11.6621360778809,11.6618909835815,11.6687593460083,11.7273015975952,11.7864351272583,11.8461675643921,11.9065084457397,11.9674673080444,12.029052734375,12.0440092086792,12.0456581115723,12.0473079681396,12.0489587783813,12.050609588623,12.0522613525391,12.0539131164551,12.0555648803711,12.0572175979614,12.0588712692261,12.0605249404907,12.0621786117554,12.0638332366943,12.0654888153076,12.0671434402466,12.0687999725342,12.0704565048218,12.0721130371094,12.0737705230713,12.0754280090332,12.0770864486694,12.0787448883057,12.0804042816162,12.0820636749268,12.0837230682373,12.0853834152222,12.0870447158813,12.0887060165405,12.090368270874,12.0920305252075,12.093692779541,12.0953559875488,12.097020149231,12.0986843109131,12.1003484725952,12.1020135879517,12.1036787033081,12.1053447723389,12.1070117950439,12.1086778640747,12.1103458404541,12.1120138168335,12.1136817932129,12.1153507232666,12.1170196533203,12.1186895370483,12.1203594207764,12.1220302581787,12.1237010955811,12.1253719329834,12.1270437240601,12.128716468811,12.130389213562,12.1320629119873,12.1337366104126,12.1354103088379,12.1370849609375,12.1387605667114,12.1404361724854,12.1421127319336,12.1437892913818,12.1454658508301,12.1471433639526,12.1488208770752,12.1504993438721,12.1521787643433,12.1538581848145,12.1555376052856,12.1572179794312,12.1588983535767,12.1605796813965,12.1622610092163,12.1639432907104,12.1656265258789,12.167308807373,12.1689929962158,12.1706762313843,12.1723613739014,12.1740465164185,12.1757316589355,12.177417755127,12.1791038513184,12.1807899475098,12.1824779510498,12.1841650009155,12.1858539581299,12.1875419616699,12.1892309188843,12.1909208297729,12.1926107406616,12.1943016052246,12.1959924697876,12.1976842880249,12.1993761062622,12.2010679244995,12.2027606964111,12.2044544219971,12.206148147583,12.2078428268433,12.2095375061035,12.2112321853638,12.2129278182983,12.2146244049072,12.2163209915161,12.2180185317993,12.2197160720825,12.2214136123657,12.2231121063232,12.2248115539551,12.2265110015869,12.2282104492188,12.2299108505249,12.2316122055054,12.2354679107666,12.2447128295898,12.2539720535278,12.2632455825806,12.2725324630737,12.2818336486816,12.2911491394043,12.3004789352417,12.3098230361938,12.3191804885864,12.3285531997681,12.3379392623901,12.347339630127,12.3567552566528,12.3661842346191,12.3756284713745,12.3850870132446,12.3945598602295,12.4040470123291,12.4135484695435,12.4230651855469,12.432596206665,12.4421415328979,12.4517021179199,12.4612770080566,12.4708662033081,12.4804706573486,12.4900903701782,12.4997243881226,12.509373664856,12.5190372467041,12.5287160873413,12.5384101867676,12.5481185913086,12.557843208313,12.5675821304321,12.5773363113403,12.5871057510376,12.5968894958496,12.606689453125,12.6165046691895,12.6263341903687,12.6361799240112,12.6460409164429,12.6559171676636,12.6658086776733,12.6757164001465,12.6856393814087,12.69557762146,12.7055311203003,12.715500831604,12.7254858016968,12.7354869842529,12.7455034255981,12.7555360794067,12.7655839920044,12.7756481170654,12.7857275009155,12.795823097229,12.8059349060059,12.8160629272461,12.8262071609497,12.8363666534424,12.8465423583984,12.8567342758179,12.866943359375,12.8771677017212,12.8874082565308,12.8976650238037,12.9079389572144,12.9182291030884,12.9285345077515,12.9388570785522,12.9491968154907,12.9595527648926,12.9699249267578,12.9803133010864,12.9907188415527,12.9967479705811,13.0027112960815,13.0086803436279,13.0146551132202,13.0206346511841,13.0266199111938,13.0358543395996,13.1133823394775,13.1296081542969,13.1458740234375,13.1621799468994,13.1785268783569,13.1949138641357,13.2113418579102,13.2278118133545,13.2443218231201,13.2608728408813,13.2774658203125,13.2940998077393,13.3107767105103,13.3274946212769,13.3442544937134,13.3610572814941,13.3779020309448,13.3947887420654,13.4117183685303,13.4286918640137,13.445707321167,13.4627666473389,13.479868888855,13.4970140457153,13.5142040252686,13.531436920166,13.5487146377563,13.5660362243652,13.5834016799927,13.600811958313,13.6182670593262,13.6357669830322,13.6533117294312,13.6709022521973,13.6885375976562,13.7062187194824,13.7239456176758,13.7417182922363,13.7595367431641,13.7774019241333,13.795313835144,13.813271522522,13.8312768936157,13.849328994751,13.8674278259277,13.8855743408203,13.9037685394287,13.9220104217529,13.940299987793,13.9586381912231,13.9770240783691,13.9954586029053,14.0139427185059,14.0324745178223,14.0510559082031,14.0696868896484,14.0883665084839,14.1070966720581,14.1258764266968,14.1447057723999,14.1635856628418,14.1825160980225,14.2014970779419,14.2205295562744,14.2396125793457,14.2587461471558,14.2779321670532,14.2971696853638
8.93428516387939,8.93024921417236,8.92621612548828,8.92218589782715,8.9181604385376,8.91413879394531,8.91012001037598,8.90610504150391,8.90589427947998,8.90881824493408,8.91174411773682,8.9146728515625,8.9176025390625,8.92053413391113,8.9234676361084,8.92640399932861,8.92934131622314,8.93228054046631,8.93522262573242,8.94110870361328,8.94956398010254,8.95803546905518,8.96652317047119,8.97502613067627,8.98354530334473,8.99208164215088,9.00063323974609,9.00718021392822,9.00734615325928,9.00751113891602,9.00767612457275,9.00784206390381,9.00800704956055,9.00817203521729,9.00833797454834,9.00850391387939,9.00866889953613,9.00883388519287,9.00899982452393,9.00916481018066,9.00933074951172,9.00949573516846,9.00966167449951,9.00982666015625,9.0099925994873,9.01015758514404,9.0103235244751,9.01048851013184,9.01065444946289,9.01081943511963,9.01098537445068,9.01115036010742,9.01131629943848,9.01148128509521,9.01164722442627,9.01181221008301,9.01197814941406,9.01214408874512,9.01230907440186,9.01247501373291,9.01263999938965,9.0128059387207,9.03422451019287,9.06919765472412,9.10444259643555,9.1399621963501,9.17576026916504,9.21183967590332,9.24820423126221,9.28485679626465,9.32180118560791,9.35904121398926,9.39657974243164,9.43441963195801,9.47256660461426,9.51102256774902,9.5497932434082,9.58888053894043,9.62828826904297,9.66802215576172,9.70808506011963,9.74848175048828,9.78921604156494,9.83029174804688,9.87171459197998,9.91348838806152,9.95561790466309,9.99810600280762,11.6697731018066,11.669527053833,11.6692819595337,11.6690359115601,11.6687908172607,11.6685447692871,11.6682996749878,11.6680545806885,11.6678085327148,11.6675634384155,11.6673183441162,11.6670722961426,11.6668272018433,11.6665821075439,11.6663360595703,11.666090965271,11.6658458709717,11.665599822998,11.6653547286987,11.6651096343994,11.6648645401001,11.6646184921265,11.6643733978271,11.6641283035278,11.6638832092285,11.6636381149292,11.6633920669556,11.6631469726562,11.6629018783569,11.6626567840576,11.6624116897583,11.662166595459,11.6619215011597,11.6688899993896,11.7274332046509,11.7865676879883,11.8463020324707,11.9066438674927,11.967604637146,12.0291919708252,12.0395450592041,12.0411939620972,12.0428428649902,12.0444917678833,12.0461416244507,12.0477914810181,12.0494422912598,12.0510931015015,12.0527448654175,12.0543966293335,12.0560493469238,12.0577020645142,12.0593557357788,12.0610094070435,12.0626630783081,12.0643177032471,12.0659732818604,12.0676288604736,12.0692844390869,12.0709409713745,12.0725984573364,12.0742559432983,12.0759134292603,12.0775718688965,12.0792303085327,12.0808897018433,12.0825490951538,12.0842094421387,12.0858697891235,12.0875310897827,12.0891923904419,12.0908546447754,12.0925168991089,12.0941801071167,12.0958433151245,12.0975074768066,12.0991716384888,12.1008358001709,12.1025009155273,12.1041669845581,12.1058330535889,12.1074991226196,12.1091661453247,12.1108341217041,12.1125020980835,12.1141700744629,12.1158390045166,12.1175079345703,12.1191778182983,12.1208486557007,12.122519493103,12.1241903305054,12.125862121582,12.1275339126587,12.1292066574097,12.1308794021606,12.1325531005859,12.1342267990112,12.1359014511108,12.1375761032104,12.1392507553101,12.1409273147583,12.1426029205322,12.1442794799805,12.145956993103,12.1476345062256,12.1493129730225,12.1509914398193,12.1526699066162,12.1543493270874,12.1560297012329,12.1577100753784,12.1593904495239,12.1610717773438,12.1627540588379,12.164436340332,12.1661186218262,12.1678018569946,12.1694860458374,12.1711702346802,12.1728544235229,12.17453956604,12.1762247085571,12.1779108047485,12.1795978546143,12.1812839508057,12.1829719543457,12.1846599578857,12.1863479614258,12.1880369186401,12.1897258758545,12.1914157867432,12.1931056976318,12.1947965621948,12.1964874267578,12.1981792449951,12.1998710632324,12.201563835144,12.2032566070557,12.2049503326416,12.2066440582275,12.2083387374878,12.210033416748,12.2117290496826,12.2134246826172,12.2151212692261,12.216817855835,12.2185153961182,12.2202129364014,12.2219114303589,12.2236099243164,12.2253084182739,12.2270088195801,12.2287082672119,12.2304086685181,12.2321100234985,12.233811378479,12.2413902282715,12.2506446838379,12.2599124908447,12.2691946029663,12.2784910202026,12.2878017425537,12.2971258163452,12.3064641952515,12.3158168792725,12.3251848220825,12.334566116333,12.3439617156982,12.3533716201782,12.3627958297729,12.3722343444824,12.3816871643066,12.3911552429199,12.4006366729736,12.4101333618164,12.4196443557739,12.4291706085205,12.4387111663818,12.4482660293579,12.4578351974487,12.4674196243286,12.4770193099976,12.4866333007812,12.4962615966797,12.5059051513672,12.5155639648438,12.5252380371094,12.5349264144897,12.5446300506592,12.5543479919434,12.5640821456909,12.5738306045532,12.5835943222046,12.593373298645,12.6031675338745,12.6129770278931,12.6228017807007,12.6326417922974,12.6424970626831,12.6523675918579,12.6622543334961,12.672155380249,12.6820726394653,12.6920051574707,12.7019538879395,12.7119178771973,12.7218971252441,12.7318925857544,12.7419033050537,12.7519302368164,12.7619724273682,12.7720308303833,12.7821044921875,12.7921953201294,12.8023014068604,12.8124227523804,12.8225612640381,12.8327150344849,12.842885017395,12.8530712127686,12.8632736206055,12.8734931945801,12.8837280273438,12.8939790725708,12.9042463302612,12.9145307540894,12.9248304367065,12.9351472854614,12.9454803466797,12.9558305740356,12.966197013855,12.9759759902954,12.9819202423096,12.9878702163696,12.9938259124756,12.9997863769531,13.0057525634766,13.0117244720459,13.0177011489868,13.0236845016479,13.104621887207,13.1310052871704,13.1472749710083,13.1635847091675,13.1799345016479,13.196325302124,13.2127571105957,13.229229927063,13.2457427978516,13.2622985839844,13.2788944244385,13.2955322265625,13.3122119903564,13.3289346694946,13.3456974029541,13.3625040054321,13.3793516159058,13.3962430953979,13.4131765365601,13.4301528930664,13.447172164917,13.4642353057861,13.4813413619995,13.4984903335571,13.5156841278076,13.5329208374023,13.5502023696899,13.5675268173218,13.5848970413208,13.6023111343384,13.6197700500488,13.6372737884521,13.6548223495483,13.6724166870117,13.6900568008423,13.7077407836914,13.725471496582,13.7432489395142,13.7610712051392,13.7789402008057,13.7968559265137,13.8148183822632,13.8328266143799,13.8508834838867,13.8689861297607,13.8871374130249,13.9053354263306,13.9235811233521,13.9418754577637,13.9602174758911,13.9786071777344,13.9970464706421,14.0155334472656,14.0340700149536,14.0526561737061,14.0712909698486,14.0899753570557,14.1087093353271,14.1274929046631,14.1463270187378,14.1652116775513,14.1841459274292,14.2031316757202,14.22216796875,14.2412557601929
8.9197940826416,8.91577053070068,8.91175079345703,8.90773391723633,8.90372180938721,8.89971256256104,8.89570713043213,8.89170551300049,8.89458751678467,8.89750480651855,8.90042304992676,8.90334320068359,8.90626621246338,8.90919017791748,8.91211700439453,8.9150447845459,8.91797542572021,8.92090702056885,8.92384147644043,8.9295072555542,8.93343448638916,8.93359565734863,8.93375587463379,8.93391704559326,8.93407821655273,8.93424034118652,8.93440341949463,8.93456554412842,8.93472862243652,8.93489170074463,8.93505382537842,8.93521690368652,8.93537902832031,8.93554210662842,8.93570518493652,8.93586730957031,8.93603038787842,8.93619346618652,8.93635559082031,8.93651866912842,8.93668174743652,8.93684387207031,8.93700695037842,8.93717002868652,8.93733215332031,8.93749523162842,8.93765830993652,8.93782138824463,8.93798351287842,8.93814659118652,8.93830966949463,8.93847179412842,8.93863487243652,8.93879795074463,8.93896102905273,8.93912315368652,8.93928623199463,8.93944931030273,8.93961238861084,8.93977546691895,8.96515846252441,8.99959850311279,9.03430271148682,9.06927680969238,9.10452175140381,9.14004230499268,9.17584133148193,9.21192169189453,9.24828624725342,9.28493976593018,9.32188510894775,9.3591251373291,9.39666366577148,9.43450546264648,9.47265243530273,9.51110935211182,9.549880027771,9.58896827697754,9.62837791442871,9.66811180114746,9.70817565917969,9.74857330322266,9.78930759429932,9.83038520812988,9.8718090057373,9.91358375549316,9.95571327209473,9.99820232391357,11.6698026657104,11.6695575714111,11.6693124771118,11.6690664291382,11.6688213348389,11.6685752868652,11.6683301925659,11.6680841445923,11.667839050293,11.6675939559937,11.66734790802,11.6671028137207,11.6668577194214,11.6666116714478,11.6663665771484,11.6661214828491,11.6658763885498,11.6656303405762,11.6653852462769,11.6651401519775,11.6648941040039,11.6646490097046,11.6644039154053,11.664158821106,11.6639137268066,11.663667678833,11.6634225845337,11.6631774902344,11.6629323959351,11.6626873016357,11.6624422073364,11.6621971130371,11.6619510650635,11.669020652771,11.7275657653809,11.7867012023926,11.8464365005493,11.9067802429199,11.9677419662476,12.0293312072754,12.0350856781006,12.036732673645,12.0383796691895,12.0400276184082,12.0416765213013,12.0433254241943,12.0449752807617,12.0466241836548,12.0482749938965,12.0499258041382,12.0515766143799,12.0532283782959,12.0548801422119,12.0565328598022,12.0581865310669,12.0598392486572,12.0614938735962,12.0631475448608,12.0648021697998,12.0664577484131,12.0681133270264,12.069769859314,12.0714263916016,12.0730838775635,12.0747413635254,12.0763988494873,12.0780572891235,12.0797166824341,12.0813760757446,12.0830354690552,12.08469581604,12.0863561630249,12.0880174636841,12.0896797180176,12.0913410186768,12.0930042266846,12.0946674346924,12.0963306427002,12.0979948043823,12.0996589660645,12.1013240814209,12.1029891967773,12.1046543121338,12.1063213348389,12.1079874038696,12.1096544265747,12.1113224029541,12.1129903793335,12.1146593093872,12.1163282394409,12.1179971694946,12.1196670532227,12.121337890625,12.1230087280273,12.1246795654297,12.1263513565063,12.128023147583,12.129695892334,12.1313695907593,12.1330432891846,12.1347169876099,12.1363916397095,12.1380662918091,12.139741897583,12.1414175033569,12.1430940628052,12.1447706222534,12.146448135376,12.1481256484985,12.1498041152954,12.1514825820923,12.1531620025635,12.1548414230347,12.1565217971802,12.1582021713257,12.1598834991455,12.1615648269653,12.1632461547852,12.1649293899536,12.1666116714478,12.1682949066162,12.169979095459,12.1716632843018,12.1733474731445,12.1750326156616,12.176718711853,12.1784048080444,12.1800918579102,12.1817789077759,12.1834659576416,12.1851539611816,12.1868419647217,12.188530921936,12.1902208328247,12.1919107437134,12.1936006546021,12.195291519165,12.1969833374023,12.1986751556396,12.200366973877,12.2020597457886,12.2037525177002,12.2054462432861,12.2071409225464,12.2088346481323,12.2105302810669,12.2122259140015,12.213921546936,12.2156181335449,12.2173147201538,12.219012260437,12.2207098007202,12.2224082946777,12.2241067886353,12.2258062362671,12.2275066375732,12.2292060852051,12.2309074401855,12.2326078414917,12.2343101501465,12.2380695343018,12.2473182678223,12.2565813064575,12.2658586502075,12.2751502990723,12.2844552993774,12.2937746047974,12.303108215332,12.3124561309814,12.3218173980713,12.3311939239502,12.3405847549438,12.3499889373779,12.3594083786011,12.368842124939,12.3782901763916,12.387752532959,12.3972291946411,12.406720161438,12.4162263870239,12.4257469177246,12.43528175354,12.4448318481445,12.4543962478638,12.4639749526978,12.4735689163208,12.4831781387329,12.4928016662598,12.5024394989014,12.512092590332,12.5217609405518,12.5314435958862,12.5411424636841,12.5508556365967,12.560583114624,12.5703268051147,12.5800848007202,12.5898580551147,12.5996475219727,12.6094512939453,12.619270324707,12.6291046142578,12.638955116272,12.6488199234009,12.6587009429932,12.6685972213745,12.6785087585449,12.6884355545044,12.6983785629272,12.7083368301392,12.7183103561401,12.7283000946045,12.7383050918579,12.7483263015747,12.7583627700806,12.7684154510498,12.7784843444824,12.7885684967041,12.7986688613892,12.8087854385376,12.8189172744751,12.829065322876,12.8392295837402,12.8494110107422,12.8596067428589,12.8698196411133,12.8800487518311,12.8902940750122,12.9005565643311,12.910834312439,12.9211282730103,12.9314393997192,12.9417667388916,12.9521102905273,12.9611959457397,12.9671268463135,12.9730634689331,12.9790048599243,12.9849519729614,12.9909048080444,12.996862411499,13.0028257369995,13.0087947845459,13.0147695541382,13.0572299957275,13.1324033737183,13.1486759185791,13.1649885177612,13.181342124939,13.1977367401123,13.2141723632812,13.2306480407715,13.2471647262573,13.2637243270874,13.2803239822388,13.2969655990601,13.3136491775513,13.3303737640381,13.3471412658691,13.3639507293701,13.3808031082153,13.3976974487305,13.4146347045898,13.4316148757935,13.4486379623413,13.4657039642334,13.482813835144,13.4999675750732,13.5171642303467,13.534405708313,13.5516901016235,13.569019317627,13.5863924026489,13.6038112640381,13.6212730407715,13.6387815475464,13.6563339233398,13.6739320755005,13.691575050354,13.7092638015747,13.7269983291626,13.744779586792,13.7626056671143,13.7804794311523,13.7983989715576,13.8163652420044,13.8343782424927,13.8524379730225,13.8705453872681,13.8887004852295,13.9069023132324,13.9251527786255,13.9434509277344,13.9617967605591,13.9801912307739,13.9986343383789,14.017126083374,14.0356664657593,14.054256439209,14.0728960037231,14.0915842056274,14.1103219985962,14.1291103363037,14.14794921875,14.1668376922607,14.1857767105103
8.85884189605713,8.85900020599365,8.85915851593018,8.85931587219238,8.85947418212891,8.85963249206543,8.85979080200195,8.85994815826416,8.86010646820068,8.86026477813721,8.86042213439941,8.86058044433594,8.86073875427246,8.86089706420898,8.86105537414551,8.86121273040771,8.86137104034424,8.86152935028076,8.86168766021729,8.86184597015381,8.86200332641602,8.86216163635254,8.86231994628906,8.86247825622559,8.86263656616211,8.86279487609863,8.86295318603516,8.863112449646,8.86327266693115,8.86343288421631,8.86359310150146,8.86375331878662,8.86391353607178,8.86407375335693,8.86423397064209,8.86439418792725,8.8645544052124,8.86471462249756,8.8648738861084,8.86503410339355,8.86519432067871,8.86535453796387,8.86551475524902,8.86567497253418,8.86583518981934,8.86599540710449,8.86615562438965,8.8663158416748,8.86647605895996,8.86663627624512,8.86679649353027,8.86695671081543,8.86711692810059,8.86727714538574,8.8674373626709,8.86759757995605,8.86775779724121,8.86791801452637,8.89714050292969,8.93105792999268,8.96523571014404,8.99967575073242,9.03438091278076,9.06935501098633,9.10460186004639,9.14012241363525,9.17592144012451,9.21200275421143,9.24836826324463,9.2850227355957,9.32196807861328,9.35920906066895,9.39674854278564,9.43459033966064,9.47273921966553,9.51119613647461,9.54996776580811,9.58905601501465,9.62846660614014,9.6682014465332,9.70826625823975,9.74866390228271,9.78940010070801,9.83047771453857,9.87190246582031,9.91367816925049,9.95580863952637,9.99829864501953,11.6698331832886,11.6695880889893,11.6693420410156,11.6690969467163,11.668851852417,11.6686058044434,11.668360710144,11.6681146621704,11.6678695678711,11.6676244735718,11.6673784255981,11.6671333312988,11.6668882369995,11.6666421890259,11.6663970947266,11.6661520004272,11.6659059524536,11.6656608581543,11.665415763855,11.6651706695557,11.664924621582,11.6646795272827,11.6644344329834,11.6641893386841,11.6639432907104,11.6636981964111,11.6634531021118,11.6632080078125,11.6629629135132,11.6627178192139,11.6624727249146,11.6622266769409,11.6619815826416,11.6691513061523,11.7276973724365,11.7868347167969,11.8465709686279,11.9069166183472,11.9678792953491,12.0289831161499,12.0306282043457,12.0322742462158,12.0339212417603,12.0355672836304,12.0372152328491,12.0388622283936,12.0405111312866,12.0421590805054,12.0438079833984,12.0454578399658,12.0471076965332,12.0487585067749,12.0504093170166,12.0520601272583,12.0537118911743,12.0553646087646,12.057017326355,12.0586700439453,12.06032371521,12.0619783401489,12.0636320114136,12.0652875900269,12.0669422149658,12.0685987472534,12.070255279541,12.0719118118286,12.0735683441162,12.0752267837524,12.0768842697144,12.0785436630249,12.0802021026611,12.0818614959717,12.0835218429565,12.0851821899414,12.0868425369263,12.0885038375854,12.0901660919189,12.0918283462524,12.0934906005859,12.0951538085938,12.0968179702759,12.098482131958,12.1001462936401,12.1018114089966,12.103476524353,12.1051425933838,12.1068086624146,12.1084756851196,12.1101427078247,12.1118106842041,12.1134786605835,12.1151475906372,12.1168165206909,12.1184864044189,12.120156288147,12.1218271255493,12.1234979629517,12.125168800354,12.1268405914307,12.1285133361816,12.1301860809326,12.1318597793579,12.1335334777832,12.1352071762085,12.1368818283081,12.138557434082,12.140233039856,12.1419086456299,12.1435852050781,12.1452617645264,12.1469392776489,12.1486177444458,12.1502952575684,12.1519746780396,12.1536540985107,12.1553335189819,12.1570138931274,12.1586942672729,12.1603755950928,12.1620569229126,12.1637392044067,12.1654214859009,12.1671047210693,12.1687879562378,12.1704721450806,12.1721563339233,12.1738414764404,12.1755266189575,12.1772127151489,12.1788988113403,12.1805858612061,12.1822729110718,12.1839599609375,12.1856479644775,12.1873369216919,12.1890258789062,12.1907157897949,12.1924057006836,12.1940956115723,12.1957864761353,12.1974782943726,12.1991701126099,12.2008628845215,12.2025556564331,12.2042484283447,12.2059421539307,12.2076368331909,12.2093315124512,12.2110261917114,12.212721824646,12.2144184112549,12.2161149978638,12.2178115844727,12.2195091247559,12.2212076187134,12.2229061126709,12.2246046066284,12.2263040542603,12.2280044555664,12.2297048568726,12.2314052581787,12.2331066131592,12.2348079681396,12.2365102767944,12.2439947128296,12.2532520294189,12.2625246047974,12.2718105316162,12.2811107635498,12.2904253005981,12.2997531890869,12.3090963363647,12.318452835083,12.3278245925903,12.3372097015381,12.3466091156006,12.3560228347778,12.3654518127441,12.3748941421509,12.3843517303467,12.3938226699829,12.4033088684082,12.4128103256226,12.4223251342773,12.4318552017212,12.4413995742798,12.4509582519531,12.4605321884155,12.470121383667,12.4797248840332,12.4893426895142,12.4989757537842,12.5086231231689,12.5182857513428,12.5279636383057,12.5376567840576,12.5473642349243,12.5570869445801,12.5668249130249,12.5765781402588,12.5863456726074,12.5961294174194,12.6059274673462,12.6157417297363,12.6255702972412,12.6354150772095,12.6452741622925,12.6551494598389,12.6650400161743,12.6749458312988,12.6848678588867,12.6948051452637,12.7047576904297,12.7147254943848,12.7247095108032,12.7347097396851,12.7447242736816,12.7547559738159,12.7648029327393,12.7748651504517,12.7849445343018,12.7950382232666,12.8051490783691,12.8152761459351,12.82541847229,12.8355770111084,12.8457517623901,12.8559427261353,12.8661489486694,12.8763723373413,12.8866119384766,12.8968677520752,12.9071397781372,12.9174289703369,12.9277334213257,12.9380550384521,12.9464492797852,12.9523668289185,12.9582891464233,12.9642181396484,12.9701509475708,12.9760904312134,12.9820346832275,12.9879846572876,12.9939403533936,12.9999008178711,13.0058670043945,13.0118389129639,13.1262235641479,13.1500768661499,13.1663932800293,13.1827507019043,13.1991481781006,13.2155876159668,13.23206615448,13.2485876083374,13.2651500701904,13.2817535400391,13.2983989715576,13.3150854110718,13.3318147659302,13.3485851287842,13.3653984069824,13.3822546005249,13.3991527557373,13.4160928726196,13.4330768585205,13.4501037597656,13.4671745300293,13.4842872619629,13.5014448165894,13.5186452865601,13.5358896255493,13.5531787872314,13.5705118179321,13.5878887176514,13.6053104400635,13.6227769851685,13.6402883529663,13.6578454971313,13.6754474639893,13.69309425354,13.710786819458,13.7285261154175,13.7463102340698,13.7641410827637,13.782018661499,13.7999420166016,13.8179121017456,13.8359289169312,13.8539934158325,13.8721046447754,13.8902635574341,13.9084701538086,13.9267244338989,13.9450263977051,13.9633760452271,13.9817752838135,14.0002222061157,14.0187187194824,14.0372638702393,14.0558576583862,14.0745010375977,14.0931940078735,14.1119365692139,14.1307287216187
8.78859424591064,8.78874969482422,8.78890609741211,8.78906154632568,8.78921699523926,8.78937244415283,8.78952789306641,8.78968334197998,8.78983879089355,8.78999423980713,8.7901496887207,8.79030609130859,8.79046154022217,8.79061698913574,8.79077243804932,8.79092788696289,8.79108428955078,8.79123973846436,8.79139518737793,8.7915506362915,8.79170608520508,8.79186153411865,8.79201793670654,8.79217338562012,8.79232883453369,8.79248428344727,8.79263973236084,8.79279613494873,8.7929515838623,8.79310894012451,8.79326629638672,8.79342365264893,8.79358100891113,8.79373931884766,8.79389667510986,8.79405403137207,8.79421234130859,8.7943696975708,8.79452705383301,8.79468441009521,8.79484272003174,8.79500007629395,8.79515743255615,8.79531574249268,8.79547309875488,8.79563045501709,8.79578876495361,8.79594612121582,8.79610347747803,8.79626178741455,8.79641914367676,8.79657745361328,8.79673480987549,8.7968921661377,8.7970495223999,8.79720783233643,8.83014678955078,8.86355495452881,8.897216796875,8.9311351776123,8.96531295776367,8.99975299835205,9.03445911407471,9.06943416595459,9.10468101501465,9.14020252227783,9.17600250244141,9.21208381652832,9.24845027923584,9.28510475158691,9.32205200195312,9.35929298400879,9.3968334197998,9.43467617034912,9.472825050354,9.5112829208374,9.55005550384521,9.58914470672607,9.62855529785156,9.66829109191895,9.7083568572998,9.74875545501709,9.78949165344238,9.83057117462158,9.87199687957764,9.91377258300781,9.95590400695801,9.99839496612549,11.6698637008667,11.6696186065674,11.6693725585938,11.6691274642944,11.6688814163208,11.6686363220215,11.6683912277222,11.6681451797485,11.6679000854492,11.6676540374756,11.6674089431763,11.667163848877,11.6669178009033,11.666672706604,11.6664276123047,11.6661825180054,11.6659364700317,11.6656913757324,11.6654462814331,11.6652002334595,11.6649551391602,11.6647100448608,11.6644649505615,11.6642198562622,11.6639738082886,11.6637287139893,11.6634836196899,11.6632385253906,11.6629934310913,11.6627473831177,11.6625022888184,11.662257194519,11.6620121002197,11.6692819595337,11.7278299331665,11.7869682312012,11.8467063903809,11.9070520401001,11.9680166244507,12.0245304107666,12.0261754989624,12.0278196334839,12.0294647216797,12.0311107635498,12.0327568054199,12.03440284729,12.0360498428345,12.0376977920532,12.0393447875977,12.0409936904907,12.0426425933838,12.0442914962769,12.0459413528442,12.0475912094116,12.0492420196533,12.050892829895,12.0525436401367,12.0541963577271,12.0558481216431,12.0575008392334,12.059154510498,12.0608081817627,12.0624618530273,12.0641164779663,12.0657720565796,12.0674276351929,12.0690832138062,12.0707397460938,12.0723972320557,12.0740537643433,12.0757122039795,12.0773706436157,12.079029083252,12.0806884765625,12.082347869873,12.0840082168579,12.0856685638428,12.087329864502,12.0889911651611,12.0906524658203,12.0923147201538,12.0939779281616,12.0956411361694,12.0973052978516,12.0989694595337,12.1006336212158,12.1022987365723,12.103964805603,12.1056308746338,12.1072969436646,12.1089639663696,12.1106309890747,12.1122989654541,12.1139678955078,12.1156358718872,12.1173057556152,12.1189756393433,12.1206455230713,12.1223163604736,12.123987197876,12.1256589889526,12.1273307800293,12.1290035247803,12.1306762695312,12.1323490142822,12.1340236663818,12.1356973648071,12.1373720169067,12.1390476226807,12.1407232284546,12.1423997879028,12.1440763473511,12.1457529067993,12.1474304199219,12.1491088867188,12.1507873535156,12.1524658203125,12.1541452407837,12.1558256149292,12.1575059890747,12.1591863632202,12.16086769104,12.1625499725342,12.1642322540283,12.1659145355225,12.1675977706909,12.1692810058594,12.1709651947021,12.1726493835449,12.174334526062,12.1760206222534,12.1777057647705,12.1793928146362,12.181079864502,12.1827669143677,12.1844549179077,12.1861429214478,12.1878318786621,12.1895208358765,12.1912107467651,12.1929006576538,12.1945915222168,12.1962823867798,12.1979742050171,12.1996660232544,12.2013578414917,12.2030515670776,12.2047443389893,12.2064380645752,12.2081327438354,12.2098274230957,12.2115230560303,12.2132186889648,12.2149152755737,12.2166118621826,12.2183084487915,12.220006942749,12.2217044830322,12.2234029769897,12.2251024246216,12.2268018722534,12.2285022735596,12.2302026748657,12.2319030761719,12.2336044311523,12.2353067398071,12.2370090484619,12.2406721115112,12.249924659729,12.2591924667358,12.2684736251831,12.2777681350708,12.2870779037476,12.2964010238647,12.3057384490967,12.3150901794434,12.3244562149048,12.333836555481,12.3432312011719,12.3526401519775,12.3620634078979,12.3715009689331,12.380952835083,12.3904190063477,12.3998994827271,12.4093952178955,12.4189052581787,12.4284296035767,12.4379692077637,12.4475231170654,12.4570913314819,12.4666748046875,12.4762725830078,12.4858856201172,12.4955129623413,12.5051555633545,12.5148134231567,12.5244855880737,12.5341730117798,12.5438756942749,12.5535926818848,12.5633249282837,12.5730724334717,12.5828351974487,12.5926132202148,12.6024055480957,12.6122140884399,12.6220378875732,12.6318769454956,12.641731262207,12.6516008377075,12.6614856719971,12.6713857650757,12.6813020706177,12.6912336349487,12.7011804580688,12.7111434936523,12.7211217880249,12.7311153411865,12.7411251068115,12.7511501312256,12.761191368103,12.7712488174438,12.7813215255737,12.791410446167,12.8015155792236,12.8116359710693,12.8217725753784,12.8319253921509,12.8420944213867,12.8522796630859,12.8624811172485,12.8726987838745,12.8829317092896,12.8931818008423,12.9034481048584,12.9137306213379,12.9240303039551,12.9317359924316,12.9376401901245,12.943549156189,12.9494638442993,12.9553842544556,12.9613094329834,12.9672403335571,12.9731769561768,12.9791193008423,12.9850664138794,12.9910192489624,12.996976852417,13.0029411315918,13.0786752700806,13.151478767395,13.1677980422974,13.1841592788696,13.2005605697632,13.2170028686523,13.2334861755371,13.2500104904175,13.2665758132935,13.2831830978394,13.2998313903809,13.3165225982666,13.3332548141479,13.3500289916992,13.3668460845947,13.3837051391602,13.4006071090698,13.4175519943237,13.4345397949219,13.4515705108643,13.4686441421509,13.4857606887817,13.5029220581055,13.5201263427734,13.53737449646,13.5546674728394,13.5720043182373,13.5893850326538,13.6068105697632,13.6242818832397,13.6417970657349,13.6593570709229,13.676962852478,13.6946144104004,13.7123107910156,13.7300539016724,13.747841835022,13.7656764984131,13.7835578918457,13.8014850616455,13.8194599151611,13.8374805450439,13.8555488586426,13.8736639022827,13.891827583313,13.9100379943848,13.9282960891724,13.9466018676758,13.9649572372437,13.983359336853,14.0018110275269,14.0203113555908,14.0388603210449,14.0574588775635,14.0761060714722
8.71945285797119,8.71960544586182,8.71975803375244,8.71991157531738,8.72006416320801,8.72021770477295,8.72037124633789,8.72052383422852,8.72067737579346,8.7208309173584,8.72098350524902,8.72113704681396,8.72128963470459,8.72144317626953,8.72159576416016,8.7217493057251,8.72190284729004,8.72205543518066,8.72220897674561,8.72236156463623,8.72251510620117,8.72266864776611,8.72282123565674,8.72297477722168,8.72312831878662,8.72328090667725,8.72343444824219,8.72358798980713,8.72374153137207,8.7238941192627,8.72404766082764,8.72420215606689,8.72435665130615,8.72451210021973,8.7246675491333,8.72482204437256,8.72497749328613,8.72513294219971,8.72528743743896,8.72544288635254,8.72559833526611,8.72575378417969,8.72590827941895,8.72606372833252,8.72621917724609,8.72637367248535,8.72652912139893,8.7266845703125,8.72684001922607,8.72699451446533,8.72714996337891,8.72730541229248,8.72746086120605,8.73149108886719,8.76415538787842,8.79706478118896,8.83022212982178,8.8636302947998,8.897292137146,8.93121147155762,8.9653902053833,8.999831199646,9.03453731536865,9.06951332092285,9.10476016998291,9.14028263092041,9.1760835647583,9.21216583251953,9.24853229522705,9.28518772125244,9.32213497161865,9.35937690734863,9.39691829681396,9.4347620010376,9.47291088104248,9.5113697052002,9.55014228820801,9.58923244476318,9.62864398956299,9.66838073730469,9.70844745635986,9.74884700775146,9.78958415985107,9.83066368103027,9.87209033966064,9.91386795043945,9.95600032806396,9.99849128723145,11.6698942184448,11.6696491241455,11.6694030761719,11.6691579818726,11.6689119338989,11.6686668395996,11.668420791626,11.6681756973267,11.6679306030273,11.6676845550537,11.6674394607544,11.6671943664551,11.6669483184814,11.6667032241821,11.6664581298828,11.6662120819092,11.6659669876099,11.6657218933105,11.6654767990112,11.6652307510376,11.6649856567383,11.664740562439,11.6644954681396,11.664249420166,11.6640043258667,11.6637592315674,11.6635141372681,11.6632690429688,11.6630229949951,11.6627779006958,11.6625328063965,11.6622877120972,11.6620426177979,11.669412612915,11.7279615402222,11.7871017456055,11.8468408584595,11.9071884155273,11.9681539535522,12.0200815200806,12.0217247009277,12.0233688354492,12.0250120162964,12.0266571044922,12.0283012390137,12.0299463272095,12.0315923690796,12.0332384109497,12.0348854064941,12.0365324020386,12.038179397583,12.0398273468018,12.0414762496948,12.0431251525879,12.044774055481,12.0464239120483,12.04807472229,12.0497255325317,12.0513763427734,12.0530281066895,12.0546798706055,12.0563325881958,12.0579853057861,12.0596389770508,12.0612926483154,12.0629463195801,12.0646018981934,12.0662565231323,12.0679121017456,12.0695686340332,12.0712251663208,12.0728816986084,12.0745391845703,12.0761976242065,12.0778560638428,12.079514503479,12.0811738967896,12.0828342437744,12.084493637085,12.0861549377441,12.0878162384033,12.0894775390625,12.091139793396,12.0928020477295,12.0944652557373,12.0961284637451,12.0977926254272,12.0994567871094,12.1011209487915,12.1027870178223,12.1044521331787,12.1061182022095,12.1077852249146,12.1094522476196,12.1111192703247,12.1127872467041,12.1144561767578,12.1161251068115,12.1177940368652,12.1194639205933,12.1211347579956,12.1228055953979,12.1244764328003,12.126148223877,12.1278200149536,12.1294927597046,12.1311664581299,12.1328392028809,12.1345138549805,12.1361875534058,12.1378631591797,12.1395387649536,12.1412143707275,12.1428899765015,12.144567489624,12.1462440490723,12.1479225158691,12.1496000289917,12.1512784957886,12.1529579162598,12.154637336731,12.1563177108765,12.157998085022,12.1596784591675,12.1613607406616,12.1630420684814,12.1647243499756,12.166407585144,12.1680908203125,12.169774055481,12.1714582443237,12.1731433868408,12.1748285293579,12.176513671875,12.1781997680664,12.1798868179321,12.1815738677979,12.1832609176636,12.1849489212036,12.1866369247437,12.188325881958,12.1900157928467,12.1917057037354,12.193395614624,12.195086479187,12.19677734375,12.1984691619873,12.2001609802246,12.2018537521362,12.2035474777222,12.2052402496338,12.206934928894,12.20862865448,12.2103242874146,12.2120199203491,12.2137155532837,12.2154121398926,12.2171087265015,12.2188062667847,12.2205038070679,12.2222023010254,12.2239007949829,12.2256002426147,12.2272996902466,12.2290000915527,12.2307004928589,12.2324018478394,12.2341032028198,12.2358055114746,12.2375078201294,12.2392110824585,12.2465991973877,12.2558612823486,12.2651376724243,12.2744274139404,12.2837314605713,12.2930498123169,12.3023824691772,12.3117294311523,12.3210897445679,12.3304653167725,12.3398542404175,12.3492584228516,12.3586759567261,12.3681087493896,12.377555847168,12.3870162963867,12.3964920043945,12.4059829711914,12.4154872894287,12.4250068664551,12.4345407485962,12.4440889358521,12.453652381897,12.463231086731,12.4728231430054,12.4824304580688,12.4920530319214,12.501690864563,12.511342048645,12.5210094451904,12.5306911468506,12.5403881072998,12.5501003265381,12.5598268508911,12.5695695877075,12.5793266296387,12.5890989303589,12.5988864898682,12.6086893081665,12.6185073852539,12.6283407211304,12.6381893157959,12.6480531692505,12.6579322814941,12.6678276062012,12.6777381896973,12.6876640319824,12.6976051330566,12.7075624465942,12.7175350189209,12.7275238037109,12.73752784729,12.7475471496582,12.7575826644897,12.7676343917847,12.7777013778687,12.787784576416,12.7978839874268,12.8079986572266,12.8181295394897,12.8282766342163,12.8384399414062,12.8486194610596,12.858814239502,12.869026184082,12.8792543411255,12.889497756958,12.8997583389282,12.9100351333618,12.9170570373535,12.9229469299316,12.92884349823,12.9347438812256,12.9406509399414,12.9465627670288,12.9524803161621,12.9584035873413,12.9643316268921,12.9702653884888,12.9762048721313,12.9821491241455,12.9880990982056,12.9940547943115,13.0314712524414,13.1478958129883,13.1692037582397,13.185567855835,13.2019729614258,13.2184181213379,13.2349052429199,13.2514333724976,13.2680025100708,13.2846126556396,13.3012657165527,13.3179597854614,13.33469581604,13.3514738082886,13.3682947158813,13.385157585144,13.402063369751,13.4190111160278,13.4360017776489,13.4530363082886,13.4701137542725,13.4872350692749,13.5044002532959,13.5216083526611,13.5388603210449,13.5561561584473,13.5734968185425,13.5908823013306,13.6083116531372,13.6257858276367,13.6433048248291,13.6608695983887,13.6784791946411,13.6961345672607,13.7138347625732,13.7315816879272,13.7493743896484,13.7672128677368,13.7850980758667,13.8030290603638,13.8210077285767,13.8390321731567,13.857105255127,13.8752241134644,13.8933916091919,13.9116058349609,13.9298686981201,13.9481792449951,13.9665374755859,13.9849443435669,14.003399848938,14.0219039916992
8.65138912200928,8.65154075622559,8.65169143676758,8.65184116363525,8.65199279785156,8.65214347839355,8.65229415893555,8.65244483947754,8.65259552001953,8.65274620056152,8.65289688110352,8.65304756164551,8.6531982421875,8.65334892272949,8.65349960327148,8.65365028381348,8.65380191802979,8.65395259857178,8.65410327911377,8.65425395965576,8.65440464019775,8.65455532073975,8.65470600128174,8.65485763549805,8.65500831604004,8.65515899658203,8.65530967712402,8.65546035766602,8.65561199188232,8.65576267242432,8.65591335296631,8.6560640335083,8.65621471405029,8.6563663482666,8.65651893615723,8.65667152404785,8.65682506561279,8.65697765350342,8.65713024139404,8.65728282928467,8.65743541717529,8.65758895874023,8.65774154663086,8.65789413452148,8.65804672241211,8.65819931030273,8.65835189819336,8.6585054397583,8.65865802764893,8.65881061553955,8.65896320343018,8.66695976257324,8.69914150238037,8.73156356811523,8.76422882080078,8.79713821411133,8.83029651641846,8.8637056350708,8.89736843109131,8.93128776550293,8.96546745300293,8.99990844726562,9.03461647033691,9.06959247589111,9.10484027862549,9.14036273956299,9.1761646270752,9.21224689483643,9.24861431121826,9.28527069091797,9.32221794128418,9.35946083068848,9.39700317382812,9.43484687805176,9.47299671173096,9.51145648956299,9.55023002624512,9.58932113647461,9.62873363494873,9.66847038269043,9.70853710174561,9.74893760681152,9.78967571258545,9.83075714111328,9.87218475341797,9.91396236419678,9.95609569549561,9.99858856201172,11.6699247360229,11.6696786880493,11.66943359375,11.6691884994507,11.6689424514771,11.6686973571777,11.6684513092041,11.6682062149048,11.6679611206055,11.6677150726318,11.6674699783325,11.6672248840332,11.6669788360596,11.6667337417603,11.6664886474609,11.6662425994873,11.665997505188,11.6657524108887,11.665506362915,11.6652612686157,11.6650161743164,11.6647710800171,11.6645250320435,11.6642799377441,11.6640348434448,11.6637897491455,11.6635446548462,11.6632986068726,11.6630535125732,11.6628084182739,11.6625633239746,11.6623182296753,11.662073135376,11.6695432662964,11.7280941009521,11.7872352600098,11.8469753265381,11.9073247909546,11.9682998657227,12.0156364440918,12.0172777175903,12.0189199447632,12.0205631256104,12.0222063064575,12.0238494873047,12.0254936218262,12.027138710022,12.0287828445435,12.0304288864136,12.0320749282837,12.0337209701538,12.0353679656982,12.0370149612427,12.0386619567871,12.0403108596802,12.0419588088989,12.043607711792,12.0452575683594,12.0469074249268,12.0485572814941,12.0502080917358,12.0518598556519,12.0535116195679,12.0551633834839,12.0568161010742,12.0584697723389,12.0601224899292,12.0617771148682,12.0634317398071,12.0650863647461,12.0667419433594,12.0683975219727,12.0700540542603,12.0717105865479,12.0733671188354,12.0750246047974,12.0766830444336,12.0783414840698,12.0800008773804,12.0816602706909,12.0833196640015,12.0849800109863,12.0866413116455,12.0883026123047,12.0899639129639,12.0916261672974,12.0932893753052,12.0949516296387,12.0966157913208,12.0982799530029,12.0999441146851,12.1016092300415,12.1032743453979,12.1049404144287,12.1066064834595,12.1082735061646,12.1099405288696,12.111608505249,12.1132764816284,12.1149444580078,12.1166143417358,12.1182832717896,12.1199531555176,12.1216239929199,12.1232948303223,12.1249656677246,12.1266374588013,12.1283102035522,12.1299829483032,12.1316556930542,12.1333293914795,12.1350040435791,12.1366786956787,12.1383533477783,12.1400289535522,12.1417045593262,12.1433811187744,12.145058631897,12.1467351913452,12.1484136581421,12.150092124939,12.1517705917358,12.153450012207,12.1551294326782,12.1568098068237,12.1584901809692,12.1601715087891,12.1618528366089,12.163535118103,12.1652173995972,12.1669006347656,12.1685838699341,12.1702671051025,12.1719522476196,12.1736364364624,12.1753215789795,12.1770076751709,12.1786937713623,12.180380821228,12.1820678710938,12.1837549209595,12.1854429244995,12.1871318817139,12.1888208389282,12.1905097961426,12.1922006607056,12.1938905715942,12.1955814361572,12.1972732543945,12.1989650726318,12.2006568908691,12.2023496627808,12.2040433883667,12.2057361602783,12.2074308395386,12.2091255187988,12.2108201980591,12.2125158309937,12.2142124176025,12.2159090042114,12.2176055908203,12.2193031311035,12.2210006713867,12.2226991653442,12.2243986129761,12.2260980606079,12.2277975082397,12.2294979095459,12.2311983108521,12.2328996658325,12.2346019744873,12.2363033294678,12.2380065917969,12.239709854126,12.243275642395,12.2525329589844,12.2618036270142,12.2710886001587,12.280387878418,12.289701461792,12.2990283966064,12.3083696365356,12.3177261352539,12.3270959854126,12.336480140686,12.3458786010742,12.3552913665771,12.3647184371948,12.3741598129272,12.3836164474487,12.3930864334106,12.4025716781616,12.4120712280273,12.4215850830078,12.4311141967773,12.4406576156616,12.4502153396606,12.4597883224487,12.4693756103516,12.4789781570435,12.4885950088501,12.4982271194458,12.5078735351562,12.5175352096558,12.52721118927,12.5369033813477,12.54660987854,12.5563316345215,12.5660676956177,12.5758199691772,12.5855865478516,12.5953683853149,12.6051654815674,12.6149787902832,12.6248064041138,12.6346492767334,12.6445083618164,12.6543817520142,12.6642713546753,12.6741762161255,12.6840963363647,12.6940326690674,12.7039833068848,12.7139511108398,12.7239332199097,12.7339315414429,12.7439460754395,12.7539758682251,12.7640218734741,12.7740831375122,12.7841606140137,12.7942543029785,12.8043632507324,12.8144884109497,12.8246297836304,12.8347873687744,12.8449602127075,12.8551502227783,12.8653554916382,12.8755779266357,12.8858165740967,12.8960704803467,12.9024105072021,12.9082870483398,12.9141702651978,12.9200582504272,12.9259510040283,12.9318494796753,12.9377536773682,12.9436626434326,12.9495782852173,12.9554977416992,12.9614238739014,12.9673547744751,12.9732913970947,12.9792327880859,12.9851808547974,12.9911336898804,13.1001920700073,13.1706094741821,13.1869773864746,13.2033853530884,13.2198343276978,13.2363243103027,13.2528562545776,13.2694292068481,13.2860431671143,13.3026990890503,13.3193969726562,13.3361368179321,13.3529186248779,13.3697423934937,13.3866090774536,13.4035186767578,13.4204702377319,13.4374656677246,13.4545030593872,13.4715843200684,13.4887094497681,13.5058784484863,13.5230894088745,13.5403461456299,13.5576457977295,13.574990272522,13.5923795700073,13.6098127365112,13.627290725708,13.6448135375977,13.6623821258545,13.6799955368042,13.6976547241211,13.7153587341309,13.7331094741821,13.7509059906006,13.7687482833862,13.7866382598877,13.804573059082,13.8225555419922,13.8405847549438,13.858660697937,13.8767852783203,13.8949556350708,13.9131746292114,13.9314413070679,13.9497556686401,13.9681186676025
8.58438110351562,8.58452892303467,8.58467769622803,8.58482646942139,8.58497428894043,8.58512306213379,8.58527183532715,8.58541965484619,8.58556842803955,8.58571720123291,8.58586502075195,8.58601379394531,8.58616161346436,8.58631038665771,8.58645915985107,8.58660697937012,8.58675575256348,8.58690452575684,8.5870532989502,8.58720111846924,8.5873498916626,8.58749866485596,8.587646484375,8.58779525756836,8.58794403076172,8.58809280395508,8.58824062347412,8.58838939666748,8.58853816986084,8.58868598937988,8.58883476257324,8.5889835357666,8.58913230895996,8.58928108215332,8.58942890167236,8.58957767486572,8.58972835540771,8.58987903594971,8.59002876281738,8.59017944335938,8.59033012390137,8.59047985076904,8.59063053131104,8.59078121185303,8.59093189239502,8.5910816192627,8.59123229980469,8.59138298034668,8.59153366088867,8.60337543487549,8.63508605957031,8.66703128814697,8.69921398162842,8.7316370010376,8.76430225372314,8.79721260070801,8.83037185668945,8.8637809753418,8.89744472503662,8.93136405944824,8.96554374694824,8.99998664855957,9.03469467163086,9.06967067718506,9.10491943359375,9.14044284820557,9.17624473571777,9.21232795715332,9.24869632720947,9.2853536605835,9.32230186462402,9.35954475402832,9.39708709716797,9.43493175506592,9.47308254241943,9.51154327392578,9.55031776428223,9.58940887451172,9.62882232666016,9.66856002807617,9.70862770080566,9.7490291595459,9.78976821899414,9.83085060119629,9.87227821350098,9.9140567779541,9.95619106292725,9.99868488311768,11.6699552536011,11.6697092056274,11.6694641113281,11.6692180633545,11.6689729690552,11.6687278747559,11.6684818267822,11.6682367324829,11.6679906845093,11.66774559021,11.6675004959106,11.667254447937,11.6670093536377,11.6667642593384,11.6665182113647,11.6662731170654,11.6660280227661,11.6657829284668,11.6655368804932,11.6652917861938,11.6650466918945,11.6648015975952,11.6645555496216,11.6643104553223,11.6640653610229,11.6638202667236,11.66357421875,11.6633291244507,11.6630840301514,11.6628389358521,11.6625938415527,11.6623487472534,11.6621036529541,11.6696739196777,11.7282257080078,11.7873687744141,11.847113609314,11.9074735641479,11.9684505462646,12.011194229126,12.0128345489502,12.0144758224487,12.0161170959473,12.0177593231201,12.019401550293,12.0210437774658,12.022686958313,12.0243310928345,12.025975227356,12.0276203155518,12.0292654037476,12.0309104919434,12.0325565338135,12.0342025756836,12.035849571228,12.0374975204468,12.0391445159912,12.0407934188843,12.042441368103,12.0440912246704,12.0457401275635,12.0473909378052,12.0490407943726,12.0506916046143,12.0523433685303,12.0539951324463,12.0556478500366,12.057300567627,12.0589532852173,12.0606069564819,12.0622615814209,12.0639162063599,12.0655708312988,12.0672264099121,12.0688819885254,12.070538520813,12.0721950531006,12.0738525390625,12.0755109786987,12.0771684646606,12.0788278579712,12.0804862976074,12.082145690918,12.0838060379028,12.0854663848877,12.0871276855469,12.0887889862061,12.0904512405396,12.092113494873,12.0937757492065,12.0954389572144,12.0971031188965,12.0987672805786,12.1004314422607,12.1020965576172,12.1037616729736,12.1054277420044,12.1070947647095,12.1087617874146,12.1104288101196,12.112096786499,12.1137647628784,12.1154336929321,12.1171026229858,12.1187725067139,12.1204423904419,12.1221132278442,12.1237840652466,12.1254558563232,12.1271276473999,12.1288003921509,12.1304731369019,12.1321458816528,12.1338195800781,12.1354942321777,12.1371688842773,12.1388444900513,12.1405200958252,12.1421957015991,12.1438722610474,12.1455497741699,12.1472272872925,12.148904800415,12.1505832672119,12.1522626876831,12.15394115448,12.1556215286255,12.157301902771,12.1589822769165,12.1606636047363,12.1623449325562,12.1640272140503,12.1657104492188,12.1673927307129,12.1690769195557,12.1707611083984,12.1724452972412,12.1741304397583,12.1758155822754,12.1775016784668,12.1791877746582,12.1808748245239,12.1825618743896,12.1842498779297,12.1859378814697,12.1876258850098,12.1893157958984,12.1910047531128,12.1926956176758,12.1943855285645,12.1960763931274,12.1977682113647,12.1994600296021,12.2011528015137,12.2028455734253,12.2045392990112,12.2062330245972,12.2079267501831,12.2096214294434,12.2113170623779,12.2130126953125,12.2147092819214,12.2164058685303,12.2181024551392,12.2197999954224,12.2214984893799,12.2231969833374,12.2248954772949,12.2265949249268,12.2282953262329,12.2299957275391,12.2316970825195,12.2333984375,12.2350997924805,12.2368021011353,12.2385053634644,12.2402086257935,12.2419118881226,12.2492055892944,12.2584714889526,12.2677516937256,12.2770462036133,12.2863540649414,12.2956762313843,12.3050127029419,12.3143634796143,12.3237285614014,12.3331069946289,12.3425006866455,12.3519086837769,12.3613300323486,12.3707666397095,12.3802175521851,12.3896827697754,12.3991632461548,12.4086570739746,12.4181661605835,12.4276895523071,12.4372272491455,12.4467802047729,12.4563474655151,12.4659299850464,12.4755268096924,12.4851388931274,12.4947652816772,12.5044059753418,12.5140628814697,12.5237340927124,12.5334196090698,12.5431213378906,12.5528373718262,12.5625686645508,12.5723152160645,12.5820760726929,12.5918531417847,12.6016445159912,12.6114521026611,12.6212739944458,12.6311120986938,12.6409645080566,12.6508331298828,12.660717010498,12.6706161499023,12.6805305480957,12.6904611587524,12.7004070281982,12.7103681564331,12.7203454971313,12.7303380966187,12.7403469085693,12.7503709793091,12.7604112625122,12.7704668045044,12.78053855896,12.7906265258789,12.8007297515869,12.8108491897583,12.8209848403931,12.8311367034912,12.8413038253784,12.8514881134033,12.8616876602173,12.8719043731689,12.8819389343262,12.8877973556519,12.8936605453491,12.8995304107666,12.9054050445557,12.9112844467163,12.9171695709229,12.9230604171753,12.9289560317993,12.9348573684692,12.9407644271851,12.9466762542725,12.9525938034058,12.958517074585,12.9644451141357,12.9703798294067,12.976318359375,12.9822635650635,13.0528326034546,13.1696405410767,13.1883869171143,13.204797744751,13.2212505340576,13.2377443313599,13.254280090332,13.2708559036255,13.2874736785889,13.3041334152222,13.3208351135254,13.3375787734985,13.3543634414673,13.3711910247803,13.3880615234375,13.404974937439,13.4219303131104,13.4389295578003,13.4559707641602,13.4730558395386,13.4901838302612,13.5073566436768,13.5245723724365,13.5418319702148,13.5591354370117,13.5764837265015,13.5938768386841,13.6113138198853,13.6287956237793,13.6463222503662,13.6638946533203,13.6815118789673,13.6991748809814,13.7168836593628,13.7346382141113,13.7524385452271,13.7702856063843,13.7881784439087,13.8061180114746,13.824104309082,13.842137336731,13.8602180480957,13.878345489502,13.896520614624,13.9147434234619
8.51840305328369,8.5185489654541,8.51869487762451,8.51884078979492,8.51898670196533,8.51913356781006,8.51927947998047,8.51942539215088,8.51957130432129,8.51971817016602,8.51986408233643,8.52000999450684,8.52015590667725,8.52030277252197,8.52044868469238,8.52059459686279,8.52074146270752,8.52088737487793,8.52103328704834,8.52117919921875,8.52132606506348,8.52147197723389,8.52161884307861,8.52176475524902,8.52191066741943,8.52205657958984,8.52220344543457,8.52234935760498,8.52249526977539,8.52264213562012,8.52278804779053,8.52293491363525,8.52308082580566,8.52322769165039,8.5233736038208,8.52351951599121,8.52366542816162,8.52381229400635,8.52396011352539,8.52410793304443,8.52425670623779,8.52440452575684,8.52455234527588,8.52470016479492,8.52484893798828,8.52499675750732,8.52514457702637,8.54071712493896,8.57196617126465,8.6034460067749,8.63515758514404,8.66710376739502,8.69928646087646,8.73171043395996,8.76437568664551,8.79728698730469,8.83044624328613,8.86385631561279,8.89752006530762,8.93144130706787,8.96562099456787,9.0000638961792,9.0347728729248,9.06974983215332,9.10499954223633,9.14052295684814,9.17632579803467,9.21240997314453,9.24877834320068,9.28543567657471,9.32238483428955,9.35962963104248,9.39717197418213,9.43501758575439,9.47316932678223,9.51163005828857,9.55040550231934,9.58949756622314,9.62891101837158,9.66864967346191,9.70871829986572,9.74911975860596,9.78986072540283,9.83094310760498,9.8723726272583,9.91415214538574,9.95628643035889,9.99878120422363,11.6699857711792,11.6697397232056,11.6694946289062,11.6692485809326,11.6690034866333,11.668758392334,11.6685123443604,11.668267250061,11.6680212020874,11.6677761077881,11.6675310134888,11.6672849655151,11.6670398712158,11.6667947769165,11.6665487289429,11.6663036346436,11.6660585403442,11.6658124923706,11.6655673980713,11.665322303772,11.6650772094727,11.664831161499,11.6645860671997,11.6643409729004,11.6640958786011,11.6638507843018,11.6636047363281,11.6633596420288,11.6631145477295,11.6628694534302,11.6626243591309,11.6623792648315,11.6621332168579,11.6698045730591,11.7283582687378,11.7875099182129,11.847261428833,11.9076194763184,11.9685964584351,12.0067548751831,12.008394241333,12.0100336074829,12.0116739273071,12.0133152008057,12.0149564743042,12.0165977478027,12.0182399749756,12.0198822021484,12.0215253829956,12.0231685638428,12.0248126983643,12.0264568328857,12.0281019210815,12.0297470092773,12.0313920974731,12.0330381393433,12.0346851348877,12.0363321304321,12.0379800796509,12.0396270751953,12.0412759780884,12.0429248809814,12.0445737838745,12.0462236404419,12.0478734970093,12.049524307251,12.0511751174927,12.0528268814087,12.0544786453247,12.056131362915,12.0577840805054,12.05943775177,12.0610914230347,12.0627460479736,12.0644006729126,12.0660552978516,12.0677108764648,12.0693674087524,12.07102394104,12.0726804733276,12.0743379592896,12.0759963989258,12.077654838562,12.0793132781982,12.0809726715088,12.0826320648193,12.0842924118042,12.0859527587891,12.0876140594482,12.0892753601074,12.0909376144409,12.0925998687744,12.0942630767822,12.09592628479,12.0975904464722,12.0992546081543,12.1009187698364,12.1025838851929,12.1042499542236,12.1059160232544,12.1075830459595,12.1092500686646,12.1109170913696,12.112585067749,12.1142530441284,12.1159219741821,12.1175918579102,12.1192617416382,12.1209316253662,12.1226024627686,12.1242733001709,12.1259450912476,12.1276168823242,12.1292896270752,12.1309623718262,12.1326360702515,12.1343097686768,12.1359844207764,12.137659072876,12.1393346786499,12.1410102844238,12.1426868438721,12.1443634033203,12.1460409164429,12.1477184295654,12.149395942688,12.1510753631592,12.1527538299561,12.1544332504272,12.1561136245728,12.1577939987183,12.1594743728638,12.1611557006836,12.1628379821777,12.1645202636719,12.166202545166,12.1678857803345,12.1695699691772,12.17125415802,12.1729383468628,12.1746234893799,12.176308631897,12.1779947280884,12.1796817779541,12.1813688278198,12.1830558776855,12.1847438812256,12.1864318847656,12.18812084198,12.1898097991943,12.191499710083,12.193190574646,12.1948804855347,12.196572303772,12.198263168335,12.1999559402466,12.2016487121582,12.2033414840698,12.2050352096558,12.2067289352417,12.208423614502,12.2101182937622,12.2118139266968,12.2135095596313,12.2152061462402,12.2169027328491,12.218599319458,12.2202978134155,12.2219953536987,12.2236948013306,12.2253932952881,12.2270927429199,12.2287931442261,12.2304935455322,12.2321949005127,12.2338962554932,12.2355985641479,12.2373008728027,12.2390041351318,12.2407073974609,12.24241065979,12.2458801269531,12.2551412582397,12.2644166946411,12.2737054824829,12.2830085754395,12.2923259735107,12.3016567230225,12.3110027313232,12.3203620910645,12.3297367095947,12.3391246795654,12.3485269546509,12.3579444885254,12.3673753738403,12.3768215179443,12.3862810134888,12.3957557678223,12.4052448272705,12.4147481918335,12.4242668151855,12.4337997436523,12.4433469772339,12.4529094696045,12.4624862670898,12.4720773696899,12.4816837310791,12.4913053512573,12.5009412765503,12.5105924606323,12.5202579498291,12.5299386978149,12.5396347045898,12.5493450164795,12.5590705871582,12.568811416626,12.5785675048828,12.5883388519287,12.5981254577637,12.6079273223877,12.6177434921265,12.6275758743286,12.6374235153198,12.6472864151001,12.6571645736694,12.6670579910278,12.6769676208496,12.6868925094604,12.6968326568604,12.7067880630493,12.7167596817017,12.7267465591431,12.7367496490479,12.7467679977417,12.7568025588989,12.7668533325195,12.7769193649292,12.7870006561279,12.79709815979,12.8072128295898,12.8173418045044,12.8274879455566,12.8376493453979,12.847827911377,12.858021736145,12.8673715591431,12.8732166290283,12.8790674209595,12.8849239349365,12.8907852172852,12.8966512680054,12.9025230407715,12.9084005355835,12.9142827987671,12.9201707839966,12.926064491272,12.9319629669189,12.9378671646118,12.9437770843506,12.9496917724609,12.9556121826172,12.961537361145,12.9674692153931,12.9734048843384,13.0058135986328,13.1217784881592,13.1897964477539,13.2062110900879,13.2226676940918,13.2391653060913,13.2557039260864,13.2722835540771,13.2889051437378,13.305567741394,13.3222732543945,13.3390197753906,13.355809211731,13.3726406097412,13.3895149230957,13.4064311981201,13.4233903884888,13.4403924942017,13.4574384689331,13.4745273590088,13.4916591644287,13.5088348388672,13.5260543823242,13.5433177947998,13.5606260299683,13.577977180481,13.5953741073608,13.6128149032593,13.6303014755249,13.6478319168091,13.6654081344604,13.6830291748047,13.7006959915161,13.7184085845947,13.7361669540405,13.7539710998535,13.771821975708,13.7897186279297,13.8076629638672,13.8256530761719,13.8436908721924,13.8617744445801
