12.2563877105713,12.2584028244019,12.2676401138306,12.2768907546997,12.2861557006836,12.2954339981079,12.3047275543213,12.3140344619751,12.3233547210693,12.3326902389526,12.3420391082764,12.3514032363892,12.3607807159424,12.3701725006104,12.3795785903931,12.3889989852905,12.3984346389771,12.407883644104,12.4173469543457,12.4268255233765,12.4363174438477,12.4458246231079,12.4553461074829,12.464882850647,12.4744338989258,12.4839992523193,12.4935789108276,12.503173828125,12.5127840042114,12.5224084854126,12.5320472717285,12.5417013168335,12.5513706207275,12.5610542297363,12.5707530975342,12.5804672241211,12.5901956558228,12.5999402999878,12.6096992492676,12.6194734573364,12.6292629241943,12.639066696167,12.648886680603,12.6587219238281,12.6685724258423,12.6784381866455,12.6883192062378,12.6982154846191,12.7081270217896,12.7180547714233,12.7279977798462,12.7379560470581,12.7479295730591,12.7579193115234,12.7679252624512,12.777946472168,12.7879829406738,12.7980356216431,12.8081035614014,12.8181886672974,12.8282880783081,12.8384046554565,12.848536491394,12.8586845397949,12.8688488006592,12.8790292739868,12.8892250061035,12.8994379043579,12.9096660614014,12.9199113845825,12.9301719665527,12.9404497146606,12.9507436752319,12.9610538482666,12.9713802337646,12.9817237854004,12.9920835494995,13.002459526062,13.0128526687622,13.0232620239258,13.0327987670898,13.0387411117554,13.0446882247925,13.0506420135498,13.0565996170044,13.0665502548218,13.1270961761475,13.1433219909668,13.1595888137817,13.1758947372437,13.1922416687012,13.2086296081543,13.225058555603,13.241527557373,13.2580375671387,13.2745895385742,13.2911825180054,13.3078174591064,13.3244934082031,13.3412113189697,13.3579711914062,13.374773979187,13.3916187286377,13.4085054397583,13.4254350662231,13.4424076080322,13.4594230651855,13.4764814376831,13.4935836791992,13.5107288360596,13.5279178619385,13.5451507568359,13.562427520752,13.5797481536865,13.597113609314,13.61452293396,13.6319770812988,13.6494760513306,13.6670198440552,13.684609413147,13.7022438049316,13.7199239730835,13.7376499176025,13.7554216384888,13.7732391357422,13.7911033630371,13.8090133666992,13.8269701004028,13.8449735641479,13.8630247116089,13.881121635437,13.8992671966553,13.917459487915,13.9356994628906,13.9539880752563,13.9723234176636,13.9907083511353,14.0091409683228,14.0276222229004,14.0461530685425,14.0647315979004,14.0833606719971,14.1020383834839,14.1207656860352,14.1395435333252,14.1583709716797,14.1772480010986,14.1961755752563,14.2151546478271,14.2341842651367,14.2532644271851,14.2723960876465,14.291579246521,14.3108139038086,14.3301000595093,14.3494386672974,14.3688297271729,14.3882732391357,14.407769203186,14.427318572998,14.4469203948975,14.4704914093018,14.4991617202759,14.527946472168,14.556845664978,14.5858602523804,14.614990234375,14.6442375183105,14.673602104187,14.7030839920044,14.7326850891113,14.7624053955078,14.7922458648682,14.8222064971924,14.8522901535034,14.8824949264526,14.912823677063,14.9432754516602,14.9738531112671,15.0045547485352,15.0353832244873,15.0663394927979,15.0974225997925,15.1286334991455,15.1599750518799,15.1914463043213,15.223048210144,15.2547817230225,15.2826089859009,15.308614730835,15.3347091674805,15.3608932495117,15.3871669769287,15.4135303497314,15.4399833679199,15.4665288925171,15.4931650161743,15.5198926925659,15.5414266586304,15.5531768798828,15.5649442672729,15.5767307281494,15.5885343551636,15.6003551483154,15.6121950149536,15.6240520477295,15.6359272003174,15.6478214263916,15.6597328186035,15.6716623306274,15.6836099624634,15.6955766677856,15.7075605392456,15.7195634841919,15.7315845489502,15.7467937469482,15.8026685714722,15.8589401245117,15.9156150817871,15.9726963043213,16.0301876068115,16.0880947113037,16.1464214324951,16.2051734924316,16.2643547058105,16.3239688873291,16.3840217590332,16.4445190429688,16.505464553833,16.5668621063232,17.0201740264893,17.0204334259033,17.020694732666,17.0209541320801,17.0212173461914,17.0214748382568,17.0217361450195,17.0219955444336,17.0222549438477,17.0225162506104,17.022777557373,17.0230369567871,17.0232982635498,17.0235576629639,17.0238170623779,17.0240783691406,17.024341583252,17.0245990753174,17.0248584747314,17.0251197814941,17.0253810882568,17.0256423950195,17.0259017944336,17.0261631011963,17.0264225006104,17.026683807373,17.0269432067871,17.0272064208984,17.0274658203125,17.0277252197266,17.0279865264893,17.0282459259033,17.028507232666,17.0287685394287,17.0290260314941,17.0292892456055,17.0295505523682,17.0298099517822,17.0300712585449,17.0303325653076,17.030590057373,17.0308513641357,17.0311126708984,17.0313739776611,17.0316333770752,17.0318946838379,17.0321559906006,17.0324153900146,17.0326766967773,17.03293800354,17.0331974029541,17.0334568023682,17.0337181091309,17.0339794158936,17.0342426300049,17.0345020294189,17.0347633361816,17.0350208282471,17.035285949707,17.0355434417725,17.0358047485352,17.0360641479492,17.0363254547119,17.0365886688232,17.0368480682373,17.0371112823486,17.0373706817627,17.0376300811768,17.0378894805908,17.0381526947021,17.0384120941162,17.0386734008789,17.0389347076416,17.0391941070557,17.039457321167,17.0397167205811,17.0399780273438,17.0402374267578,17.0405006408691,17.0407619476318,17.0410213470459,17.0412826538086,17.0415420532227,17.0418071746826,17.0420665740967,17.0423259735107,17.0425872802734,17.0428504943848,17.0431079864502,17.0433712005615,17.0436325073242,17.0438919067383,17.044153213501,17.044412612915,17.0446739196777,17.0449371337891,17.0451984405518,17.0454597473145,17.0457191467285,17.0459804534912,17.0462398529053,17.046501159668,17.0467643737793,17.047025680542,17.0472850799561,17.0475482940674,17.0478096008301,17.0480690002441,17.0483303070068,17.0485916137695,17.0488510131836,17.0491123199463,17.0493774414062,17.0496368408203,17.049898147583,17.0501575469971,17.0504207611084,17.0506820678711,17.0509433746338,17.0512046813965
12.2517309188843,12.2533826828003,12.2550344467163,12.2566871643066,12.258339881897,12.2641277313232,12.2733736038208,12.2826328277588,12.2919063568115,12.301194190979,12.3104953765869,12.3198118209839,12.3291416168213,12.3384847640991,12.347843170166,12.3572158813477,12.3666019439697,12.3760023117065,12.3854179382324,12.3948469161987,12.4042911529541,12.4137487411499,12.4232215881348,12.4327087402344,12.4422101974487,12.4517269134521,12.461256980896,12.4708023071289,12.4803628921509,12.4899368286133,12.4995260238647,12.5091304779053,12.5187492370605,12.5283832550049,12.538031578064,12.5476942062378,12.557373046875,12.567066192627,12.5767736434937,12.5864973068237,12.5962352752686,12.6059885025024,12.6157569885254,12.6255407333374,12.6353397369385,12.6451530456543,12.6549825668335,12.6648273468018,12.6746873855591,12.6845617294312,12.6944522857666,12.7043590545654,12.714280128479,12.724217414856,12.734169960022,12.7441377639771,12.7541217803955,12.764121055603,12.7741365432739,12.7841672897339,12.7942132949829,12.8042764663696,12.8143539428711,12.8244485855103,12.8345584869385,12.8446846008301,12.8548259735107,12.8649845123291,12.8751583099365,12.8853483200073,12.8955545425415,12.9057769775391,12.9160165786743,12.9262714385986,12.9365425109863,12.9468297958374,12.9571342468262,12.967453956604,12.9777908325195,12.9881448745728,12.998514175415,13.008900642395,13.0177431106567,13.0236711502075,13.0296049118042,13.0355443954468,13.0414886474609,13.047438621521,13.053394317627,13.1283016204834,13.14453125,13.1607999801636,13.1771097183228,13.1934595108032,13.2098503112793,13.2262811660767,13.2427539825439,13.2592678070068,13.275821685791,13.2924184799194,13.3090562820435,13.3257350921631,13.342456817627,13.3592195510864,13.3760251998901,13.3928728103638,13.4097633361816,13.4266958236694,13.4436712265015,13.4606904983521,13.4777517318726,13.4948568344116,13.5120058059692,13.5291976928711,13.5464334487915,13.5637140274048,13.5810384750366,13.598406791687,13.6158199310303,13.6332769393921,13.6507797241211,13.668327331543,13.6859197616577,13.7035570144653,13.7212409973145,13.7389698028564,13.7567453384399,13.7745666503906,13.7924337387085,13.8103475570679,13.8283081054688,13.8463144302368,13.8643684387207,13.8824701309204,13.9006185531616,13.9188146591187,13.9370584487915,13.9553499221802,13.9736890792847,13.9920778274536,14.0105133056641,14.0289993286133,14.0475330352783,14.0661153793335,14.0847482681274,14.1034297943115,14.1221609115601,14.140941619873,14.1597728729248,14.178653717041,14.1975860595703,14.2165679931641,14.2356014251709,14.2546854019165,14.2738208770752,14.293007850647,14.3122463226318,14.3315372467041,14.3508787155151,14.3702735900879,14.389720916748,14.4092216491699,14.4303131103516,14.4588241577148,14.4874486923218,14.5161867141724,14.5450391769409,14.5740070343018,14.6030893325806,14.6322889328003,14.6616048812866,14.6910390853882,14.720591545105,14.7502632141113,14.7800540924072,14.8099660873413,14.8399991989136,14.8701543807983,14.9004325866699,14.9308347702026,14.9613609313965,14.9920110702515,15.0227880477905,15.0536918640137,15.0847225189209,15.1158819198608,15.1471700668335,15.1785879135132,15.2089433670044,15.2346992492676,15.2605428695679,15.286473274231,15.3124923706055,15.3386001586914,15.3647975921631,15.3910846710205,15.4174613952637,15.4439287185669,15.4704866409302,15.4971370697021,15.5236806869507,15.5354042053223,15.5471448898315,15.5589036941528,15.5706806182861,15.5824747085571,15.5942869186401,15.6061172485352,15.6179647445679,15.6298313140869,15.6417150497437,15.6536178588867,15.6655378341675,15.6774768829346,15.6894330978394,15.7014083862305,15.7134017944336,15.7254133224487,15.7374439239502,15.7494916915894,15.7615594863892,15.8009805679321,15.8572406768799,15.9139032363892,15.9709711074829,16.0284519195557,16.0863456726074,16.144660949707,16.2033996582031,16.2625675201416,16.3221683502197,16.3822078704834,16.4426918029785,16.5036220550537,16.8792057037354,16.8794631958008,16.8797149658203,16.8799724578857,16.8802280426025,16.880485534668,16.8807411193848,16.8809967041016,16.8812522888184,16.8815097808838,16.8817672729492,16.882022857666,16.8822784423828,16.8825340270996,16.882791519165,16.8830432891846,16.88330078125,16.8835582733154,16.8838119506836,16.884069442749,16.8843269348145,16.8845844268799,16.8848400115967,16.8850955963135,16.8853511810303,16.8856067657471,16.8858623504639,16.8861198425293,16.8863735198975,16.8866310119629,16.8868885040283,16.8871421813965,16.8874015808105,16.8876571655273,16.8879108428955,16.8881702423096,16.8884258270264,16.8886814117432,16.8889389038086,16.8891944885254,16.8894481658936,16.8897075653076,16.889965057373,16.8902206420898,16.890474319458,16.8907299041748,16.8909893035889,16.8912467956543,16.8915004730225,16.8917579650879,16.8920135498047,16.8922691345215,16.8925247192383,16.8927841186523,16.8930397033691,16.8932952880859,16.8935527801514,16.8938083648682,16.894063949585,16.894323348999,16.8945770263672,16.894832611084,16.895092010498,16.8953475952148,16.8956050872803,16.8958606719971,16.8961162567139,16.8963737487793,16.8966293334961,16.8968868255615,16.8971424102783,16.8973979949951,16.8976554870605,16.8979148864746,16.8981666564941,16.8984279632568,16.8986797332764,16.8989372253418,16.8991966247559,16.8994522094727,16.8997097015381,16.8999652862549,16.9002227783203,16.9004764556885,16.9007358551025,16.9009895324707,16.9012489318848,16.9015045166016,16.9017601013184,16.9020195007324,16.9022731781006,16.9025325775146,16.9027900695801,16.9030418395996,16.9033012390137,16.9035606384277,16.9038162231445,16.90407371521,16.9043273925781,16.9045848846436,16.9048404693604,16.9050998687744,16.9053554534912,16.905611038208,16.9058685302734,16.9061260223389,16.9063835144043,16.9066410064697,16.9068965911865,16.907154083252,16.9074096679688,16.9076652526855,16.9079265594482,16.9081802368164,16.9084358215332,16.9086952209473
12.2470769882202,12.2487277984619,12.2503786087036,12.2520294189453,12.2536811828613,12.2553339004517,12.256986618042,12.2586393356323,12.2606182098389,12.2698583602905,12.2791128158569,12.2883815765381,12.2976636886597,12.3069591522217,12.3162698745728,12.3255939483643,12.3349323272705,12.3442850112915,12.3536520004272,12.3630332946777,12.372428894043,12.3818378448486,12.3912620544434,12.4007005691528,12.4101533889771,12.419620513916,12.4291019439697,12.4385976791382,12.4481086730957,12.457633972168,12.467173576355,12.4767274856567,12.4862966537476,12.4958810806274,12.5054788589478,12.5150918960571,12.5247201919556,12.5343627929688,12.544020652771,12.553692817688,12.5633811950684,12.5730829238892,12.5828008651733,12.5925331115723,12.6022806167603,12.6120433807373,12.6218214035034,12.6316137313843,12.6414222717285,12.6512460708618,12.6610841751099,12.6709384918213,12.6808080673218,12.690691947937,12.7005929946899,12.7105083465576,12.7204389572144,12.7303857803345,12.7403478622437,12.7503261566162,12.7603197097778,12.7703285217285,12.7803535461426,12.7903938293457,12.8004503250122,12.8105230331421,12.820611000061,12.830714225769,12.8408346176147,12.8509702682495,12.8611221313477,12.8712902069092,12.8814744949341,12.8916749954224,12.9018907546997,12.9121236801147,12.9223718643188,12.9326372146606,12.9429187774658,12.9532165527344,12.9635305404663,12.9738616943359,12.9842081069946,12.994571685791,13.002721786499,13.0086364746094,13.0145568847656,13.0204820632935,13.0264129638672,13.0323495864868,13.038290977478,13.0442380905151,13.0886421203613,13.1457395553589,13.1620111465454,13.1783237457275,13.1946773529053,13.2110710144043,13.2275056838989,13.2439804077148,13.2604970932007,13.2770547866821,13.2936544418335,13.3102951049805,13.3269777297974,13.3437013626099,13.3604679107666,13.3772764205933,13.3941278457642,13.4110202789307,13.4279565811157,13.444935798645,13.4619579315186,13.4790229797363,13.4961309432983,13.5132827758789,13.530478477478,13.5477180480957,13.5650005340576,13.5823287963867,13.5996999740601,13.6171159744263,13.6345777511597,13.6520833969116,13.6696338653564,13.6872301101685,13.7048711776733,13.7225580215454,13.7402906417847,13.7580690383911,13.7758932113647,13.7937641143799,13.8116817474365,13.8296451568604,13.8476552963257,13.8657131195068,13.8838176727295,13.901969909668,13.9201698303223,13.9384174346924,13.956711769104,13.9750556945801,13.993447303772,14.0118865966797,14.0303754806519,14.0489130020142,14.0675001144409,14.0861358642578,14.1048212051392,14.123556137085,14.1423406600952,14.1611757278442,14.1800603866577,14.19899559021,14.2179822921753,14.2370195388794,14.2561073303223,14.2752466201782,14.2944374084473,14.3136796951294,14.3329734802246,14.3523197174072,14.3717184066772,14.3911695480347,14.4187097549438,14.4471759796143,14.475754737854,14.5044460296631,14.5332517623901,14.5621719360352,14.5912084579468,14.6203594207764,14.6496276855469,14.6790142059326,14.7085180282593,14.7381410598755,14.7678833007812,14.7977457046509,14.8277292251587,14.857834815979,14.8880624771118,14.9184141159058,14.9488887786865,14.9794893264771,15.010214805603,15.0410661697388,15.0720453262329,15.1031513214111,15.1343870162964,15.1614942550659,15.1870899200439,15.2127714157104,15.2385396957397,15.2643957138062,15.290340423584,15.3163728713989,15.3424940109253,15.3687038421631,15.3950042724609,15.4213943481445,15.4478750228882,15.4744472503662,15.5011110305786,15.517671585083,15.5293855667114,15.5411176681519,15.55286693573,15.5646343231201,15.5764198303223,15.5882234573364,15.6000442504883,15.6118831634521,15.623740196228,15.6356143951416,15.6475076675415,15.6594190597534,15.6713485717773,15.683295249939,15.6952610015869,15.7072448730469,15.7192478179932,15.7312679290771,15.7433071136475,15.7553644180298,15.7674407958984,15.7795352935791,15.7992925643921,15.855541229248,15.9121913909912,15.9692468643188,16.0267143249512,16.0845966339111,16.1428985595703,16.201623916626,16.260778427124,16.3203678131104,16.3803939819336,16.4408645629883,16.740550994873,16.7408027648926,16.7410564422607,16.7413063049316,16.7415599822998,16.7418098449707,16.7420635223389,16.7423133850098,16.7425670623779,16.7428188323975,16.743070602417,16.7433223724365,16.7435722351074,16.7438259124756,16.7440795898438,16.7443313598633,16.7445831298828,16.7448310852051,16.7450847625732,16.7453365325928,16.7455883026123,16.7458419799805,16.74609375,16.7463436126709,16.7465991973877,16.7468509674072,16.7471008300781,16.7473564147949,16.7476024627686,16.7478580474854,16.7481079101562,16.7483615875244,16.7486133575439,16.7488632202148,16.749116897583,16.7493686676025,16.7496223449707,16.7498722076416,16.7501258850098,16.7503757476807,16.7506294250488,16.7508792877197,16.7511329650879,16.7513866424561,16.751636505127,16.7518901824951,16.752140045166,16.7523937225342,16.7526454925537,16.7528972625732,16.7531509399414,16.7534027099609,16.7536563873291,16.7539081573486,16.7541618347168,16.7544116973877,16.7546653747559,16.7549171447754,16.7551708221436,16.7554244995117,16.755672454834,16.7559261322021,16.7561779022217,16.7564296722412,16.7566814422607,16.7569351196289,16.7571830749512,16.757438659668,16.7576923370361,16.7579441070557,16.7581977844238,16.7584476470947,16.7587013244629,16.7589511871338,16.759204864502,16.7594566345215,16.759708404541,16.7599620819092,16.7602157592773,16.7604694366455,16.7607192993164,16.7609729766846,16.7612228393555,16.7614765167236,16.7617282867432,16.7619819641113,16.7622337341309,16.762487411499,16.7627391815186,16.7629909515381,16.7632446289062,16.7634983062744,16.7637500762939,16.7640018463135,16.764253616333,16.7645072937012,16.7647609710693,16.7650127410889,16.7652626037598,16.7655162811279,16.7657680511475,16.7660236358643,16.7662754058838,16.7665252685547,16.7667789459229,16.767032623291,16.7672843933105,16.7675361633301,16.7677898406982,16.7680435180664,16.7682933807373,16.7685489654541
12.2424278259277,12.2440767288208,12.2457265853882,12.2473764419556,12.2490262985229,12.2506771087646,12.2523288726807,12.2539806365967,12.255633354187,12.257285118103,12.2589387893677,12.2605924606323,12.2663459777832,12.2755947113037,12.284857749939,12.2941341400146,12.3034248352051,12.3127298355103,12.3220491409302,12.3313827514648,12.3407297134399,12.3500909805298,12.3594665527344,12.3688564300537,12.3782606124878,12.3876791000366,12.3971118927002,12.4065599441528,12.4160213470459,12.4254970550537,12.4349880218506,12.4444932937622,12.4540128707886,12.4635467529297,12.4730958938599,12.4826593399048,12.4922370910645,12.5018301010132,12.5114374160767,12.5210599899292,12.5306968688965,12.5403490066528,12.5500154495239,12.5596981048584,12.5693941116333,12.5791063308716,12.5888328552246,12.5985746383667,12.6083316802979,12.6181039810181,12.627890586853,12.6376934051514,12.6475105285645,12.6573438644409,12.6671915054321,12.6770553588867,12.6869344711304,12.6968288421631,12.7067384719849,12.7166633605957,12.7266044616699,12.7365608215332,12.7465324401855,12.7565202713013,12.7665233612061,12.7765417098999,12.7865762710571,12.7966270446777,12.8066930770874,12.8167753219604,12.8268728256226,12.8369874954224,12.8471164703369,12.8572626113892,12.8674249649048,12.8776025772095,12.8877964019775,12.898006439209,12.9082326889038,12.9184761047363,12.9287347793579,12.9390096664429,12.9493017196655,12.9596090316772,12.9699335098267,12.9802742004395,12.987735748291,12.9936370849609,12.9995431900024,13.0054550170898,13.0113725662231,13.017294883728,13.0232229232788,13.0291557312012,13.0350942611694,13.0410385131836,13.1469478607178,13.1632232666016,13.1795387268066,13.1958951950073,13.2122917175293,13.2287292480469,13.2452077865601,13.2617273330688,13.2782878875732,13.2948904037476,13.3115339279175,13.3282194137573,13.3449468612671,13.3617162704468,13.3785285949707,13.3953828811646,13.4122791290283,13.4292182922363,13.4462003707886,13.4632253646851,13.4802932739258,13.4974050521851,13.5145606994629,13.531759262085,13.5490016937256,13.5662879943848,13.5836191177368,13.6009941101074,13.6184139251709,13.6358776092529,13.6533870697021,13.6709413528442,13.6885404586792,13.7061853408813,13.7238750457764,13.7416114807129,13.7593927383423,13.7772207260132,13.7950954437256,13.8130159378052,13.8309831619263,13.8489971160889,13.867057800293,13.8851661682129,13.9033222198486,13.9215250015259,13.9397764205933,13.9580745697021,13.9764213562012,13.9948167800903,14.0132608413696,14.0317525863647,14.0502939224243,14.068883895874,14.0875234603882,14.1062126159668,14.1249513626099,14.1437397003174,14.1625785827637,14.1814670562744,14.2004060745239,14.2193965911865,14.2384366989136,14.2575283050537,14.2766714096069,14.2958660125732,14.3151121139526,14.3344106674194,14.3537607192993,14.3788185119629,14.4071264266968,14.435546875,14.4640789031982,14.4927244186401,14.5214834213257,14.5503578186035,14.579345703125,14.6084499359131,14.6376705169678,14.6670083999634,14.6964645385742,14.726037979126,14.7557315826416,14.7855453491211,14.8154792785645,14.8455352783203,14.8757133483887,14.9060134887695,14.9364385604858,14.966986656189,14.9976615905762,15.0284614562988,15.0593881607056,15.0889902114868,15.1143407821655,15.1397762298584,15.1652984619141,15.1909065246582,15.2166004180908,15.2423820495605,15.2682514190674,15.2942085266113,15.3202543258667,15.3463888168335,15.3726119995117,15.39892578125,15.425329208374,15.4518241882324,15.4784097671509,15.4999799728394,15.5116672515869,15.5233726501465,15.5350952148438,15.546835899353,15.55859375,15.570369720459,15.58216381073,15.593976020813,15.6058053970337,15.6176528930664,15.6295185089111,15.6414022445679,15.6533041000366,15.6652240753174,15.6771621704102,15.6891183853149,15.7010936737061,15.7130861282349,15.72509765625,15.7371263504028,15.7491750717163,15.7612409591675,15.773325920105,15.7854299545288,15.7975521087646,15.8096923828125,15.8538417816162,15.9104795455933,15.9675235748291,16.0249786376953,16.0828475952148,16.1411361694336,16.1998500823975,16.2589912414551,16.318567276001,16.3785800933838,16.6041584014893,16.6044063568115,16.6046524047852,16.6049003601074,16.6051502227783,16.6053981781006,16.6056442260742,16.6058940887451,16.6061420440674,16.606388092041,16.6066360473633,16.6068820953369,16.6071300506592,16.6073760986328,16.6076259613037,16.6078777313232,16.6081237792969,16.6083698272705,16.6086177825928,16.6088676452637,16.6091136932373,16.6093635559082,16.6096096038818,16.6098575592041,16.6101055145264,16.6103534698486,16.6106014251709,16.6108493804932,16.6110973358154,16.6113433837891,16.61159324646,16.6118412017822,16.6120872497559,16.6123371124268,16.612585067749,16.6128311157227,16.6130790710449,16.6133289337158,16.6135768890381,16.6138248443604,16.6140747070312,16.6143188476562,16.6145687103271,16.6148128509521,16.6150646209717,16.6153125762939,16.6155605316162,16.6158084869385,16.6160583496094,16.6163024902344,16.6165504455566,16.6168003082275,16.6170482635498,16.6172981262207,16.6175441741943,16.6177940368652,16.6180400848389,16.6182899475098,16.618537902832,16.6187839508057,16.6190319061279,16.6192798614502,16.6195297241211,16.6197776794434,16.6200256347656,16.6202754974365,16.6205234527588,16.6207714080811,16.621021270752,16.6212692260742,16.6215152740479,16.6217632293701,16.6220111846924,16.6222610473633,16.6225090026855,16.6227550506592,16.6230049133301,16.6232528686523,16.6235027313232,16.6237506866455,16.6239986419678,16.6242446899414,16.6244945526123,16.6247444152832,16.6249923706055,16.6252422332764,16.6254863739014,16.6257362365723,16.6259841918945,16.6262340545654,16.6264820098877,16.6267280578613,16.6269798278809,16.6272277832031,16.627477645874,16.627721786499,16.6279716491699,16.6282215118408,16.6284675598145,16.6287155151367,16.6289653778076,16.6292152404785,16.6294612884521,16.629711151123,16.6299591064453,16.6302089691162,16.6304569244385,16.6307048797607
12.2377815246582,12.2394285202026,12.2410774230957,12.2427263259888,12.2443752288818,12.2460250854492,12.2476749420166,12.2493257522583,12.2509765625,12.252628326416,12.254280090332,12.255931854248,12.2575845718384,12.259238243103,12.2608919143677,12.2628345489502,12.2720785140991,12.2813358306885,12.2906074523926,12.2998933792114,12.3091926574707,12.3185062408447,12.3278341293335,12.337176322937,12.346531867981,12.355902671814,12.3652868270874,12.3746852874756,12.3840990066528,12.3935260772705,12.4029674530029,12.4124240875244,12.4218950271606,12.4313793182373,12.440878868103,12.4503936767578,12.459921836853,12.4694652557373,12.4790229797363,12.4885959625244,12.4981832504272,12.5077848434448,12.5174016952515,12.5270328521729,12.5366792678833,12.5463409423828,12.5560169219971,12.5657081604004,12.5754137039185,12.5851345062256,12.5948715209961,12.604621887207,12.6143884658813,12.6241703033447,12.6339664459229,12.6437788009644,12.6536054611206,12.6634473800659,12.6733055114746,12.6831789016724,12.6930665969849,12.7029705047607,12.712890625,12.722825050354,12.7327756881714,12.7427415847778,12.7527227401733,12.7627201080322,12.7727327346802,12.7827615737915,12.7928056716919,12.8028659820557,12.8129425048828,12.823034286499,12.8331422805786,12.8432655334473,12.8534049987793,12.8635606765747,12.8737325668335,12.8839206695557,12.8941249847412,12.9043455123901,12.9145812988281,12.9248342514038,12.9351034164429,12.9453887939453,12.9556903839111,12.9660081863403,12.9727840423584,12.9786710739136,12.9845638275146,12.9904623031616,12.9963655471802,13.0022745132446,13.008189201355,13.0141086578369,13.0200338363647,13.0259637832642,13.0318994522095,13.1108083724976,13.1644353866577,13.1807537078857,13.1971130371094,13.2135133743286,13.2299537658691,13.2464351654053,13.262957572937,13.2795219421387,13.2961263656616,13.3127737045288,13.3294630050659,13.3461933135986,13.3629655838013,13.3797807693481,13.3966379165649,13.4135370254517,13.4304800033569,13.4474649429321,13.4644937515259,13.4815645217896,13.4986791610718,13.5158376693726,13.5330400466919,13.5502853393555,13.5675754547119,13.5849094390869,13.6022882461548,13.6197109222412,13.6371784210205,13.6546907424927,13.672248840332,13.6898508071899,13.7074995040894,13.7251930236816,13.7429323196411,13.7607173919678,13.7785482406616,13.7964267730713,13.8143501281738,13.8323211669922,13.8503389358521,13.8684034347534,13.8865146636963,13.9046745300293,13.9228811264038,13.9411354064941,13.9594373703003,13.9777879714966,13.9961862564087,14.0146341323853,14.0331296920776,14.0516748428345,14.0702686309814,14.0889120101929,14.1076049804688,14.1263465881348,14.1451387405396,14.1639814376831,14.1828737258911,14.2018165588379,14.2208108901978,14.2398548126221,14.2589502334595,14.27809715271,14.2972955703735,14.3165464401245,14.3391466140747,14.367299079895,14.395562171936,14.4239358901978,14.4524230957031,14.4810218811035,14.5097341537476,14.5385608673096,14.5675029754639,14.5965595245361,14.625732421875,14.6550226211548,14.6844301223755,14.7139558792114,14.7436008453369,14.773365020752,14.8032503128052,14.8332557678223,14.8633832931519,14.8936338424683,14.9240083694458,14.9545059204102,14.9851293563843,15.0158777236938,15.0422849655151,15.067479133606,15.0927572250366,15.1181201934814,15.1435689926147,15.1691036224365,15.1947250366211,15.2204322814941,15.2462272644043,15.2721090316772,15.2980794906616,15.3241376876831,15.3502855300903,15.3765230178833,15.402850151062,15.4292669296265,15.4557752609253,15.482328414917,15.4939889907837,15.5056676864624,15.5173635482788,15.5290775299072,15.5408086776733,15.5525579452515,15.5643243789673,15.5761098861694,15.5879125595093,15.5997323989868,15.6115713119507,15.6234273910522,15.6353015899658,15.6471948623657,15.6591053009033,15.6710338592529,15.6829805374146,15.6949462890625,15.7069292068481,15.7189311981201,15.7309513092041,15.7429895401001,15.7550468444824,15.7671222686768,15.7792167663574,15.7913284301758,15.8034601211548,15.8156099319458,15.8277778625488,15.8521423339844,15.9087686538696,15.9658002853394,16.0232429504395,16.0810985565186,16.1393756866455,16.1980762481689,16.2572040557861,16.3167667388916,16.4699687957764,16.4702129364014,16.4704551696777,16.4707012176514,16.4709453582764,16.4711894989014,16.4714298248291,16.4716758728027,16.4719181060791,16.4721641540527,16.4724063873291,16.4726505279541,16.4728927612305,16.4731369018555,16.4733829498291,16.4736270904541,16.4738712310791,16.4741134643555,16.4743556976318,16.4745998382568,16.4748458862305,16.4750881195068,16.4753341674805,16.4755783081055,16.4758186340332,16.4760627746582,16.4763069152832,16.4765510559082,16.4767932891846,16.4770412445068,16.4772853851318,16.4775276184082,16.4777717590332,16.4780139923096,16.4782600402832,16.4785022735596,16.4787483215332,16.4789905548096,16.4792346954346,16.4794788360596,16.4797248840332,16.4799690246582,16.4802131652832,16.4804534912109,16.4806995391846,16.4809455871582,16.4811878204346,16.4814338684082,16.4816761016846,16.4819202423096,16.4821643829346,16.4824066162109,16.4826526641846,16.4828948974609,16.4831409454346,16.4833831787109,16.4836292266846,16.4838733673096,16.4841175079346,16.4843616485596,16.4846038818359,16.4848480224609,16.4850921630859,16.4853382110596,16.4855823516846,16.4858264923096,16.4860706329346,16.4863147735596,16.4865589141846,16.4868030548096,16.4870491027832,16.4872913360596,16.4875354766846,16.4877815246582,16.4880256652832,16.4882678985596,16.4885101318359,16.4887561798096,16.4890003204346,16.4892444610596,16.4894886016846,16.4897346496582,16.4899787902832,16.4902229309082,16.4904689788818,16.4907112121582,16.4909534454346,16.4911975860596,16.4914436340332,16.4916877746582,16.4919338226318,16.4921779632568,16.4924221038818,16.4926662445068,16.4929122924805,16.4931564331055,16.4933967590332,16.4936447143555,16.4938869476318,16.4941329956055,16.4943790435791,16.4946231842041,16.4948654174805,16.4951095581055
12.2331380844116,12.2347850799561,12.2364320755005,12.2380790710449,12.2397270202637,12.2413759231567,12.2430248260498,12.2446737289429,12.2463235855103,12.2479734420776,12.2496242523193,12.2512760162354,12.2529268264771,12.2545785903931,12.2562313079834,12.2578840255737,12.2595376968384,12.261191368103,12.262845993042,12.2685642242432,12.2778167724609,12.2870826721191,12.2963628768921,12.3056573867798,12.3149652481079,12.3242874145508,12.3336238861084,12.3429746627808,12.3523397445679,12.3617191314697,12.371111869812,12.3805198669434,12.3899421691895,12.399377822876,12.4088287353516,12.4182939529419,12.427773475647,12.4372673034668,12.4467763900757,12.456298828125,12.4658365249634,12.4753894805908,12.484956741333,12.4945383071899,12.5041341781616,12.5137453079224,12.5233716964722,12.5330123901367,12.542667388916,12.5523376464844,12.5620231628418,12.5717239379883,12.5814390182495,12.5911693572998,12.6009149551392,12.6106758117676,12.6204509735107,12.6302423477173,12.6400480270386,12.6498689651489,12.6597061157227,12.6695575714111,12.679425239563,12.6893072128296,12.6992053985596,12.7091188430786,12.7190475463867,12.7289924621582,12.7389526367188,12.7489280700684,12.758918762207,12.7689266204834,12.7789487838745,12.788987159729,12.7990417480469,12.8091115951538,12.8191976547241,12.8292989730835,12.8394165039062,12.8495502471924,12.8597002029419,12.8698654174805,12.8800477981567,12.8902454376221,12.9004592895508,12.9106893539429,12.9209365844727,12.9311990737915,12.941478729248,12.9517736434937,12.9578666687012,12.9637403488159,12.9696197509766,12.9755039215088,12.9813938140869,12.9872894287109,12.9931898117065,12.999095916748,13.0050067901611,13.0109243392944,13.016845703125,13.0227737426758,13.0620222091675,13.1656475067139,13.1819696426392,13.1983308792114,13.2147340774536,13.2311773300171,13.2476625442505,13.2641878128052,13.2807550430298,13.29736328125,13.3140134811401,13.3307056427002,13.3474388122559,13.3642148971558,13.3810329437256,13.3978929519653,13.4147958755493,13.4317417144775,13.44873046875,13.4657611846924,13.4828357696533,13.4999542236328,13.5171155929565,13.5343208312988,13.5515699386597,13.5688629150391,13.5862007141113,13.6035823822021,13.6210088729858,13.6384792327881,13.6559953689575,13.6735563278198,13.691162109375,13.7088136672974,13.7265100479126,13.7442531585693,13.7620420455933,13.7798767089844,13.797758102417,13.8156852722168,13.8336601257324,13.8516807556152,13.8697490692139,13.887864112854,13.90602684021,13.9242372512817,13.942494392395,13.9608011245728,13.979154586792,13.9975576400757,14.0160083770752,14.0345077514648,14.0530557632446,14.0716533660889,14.0903005599976,14.1089973449707,14.127742767334,14.146538734436,14.1653842926025,14.1842813491821,14.2032279968262,14.222225189209,14.2412738800049,14.2603731155396,14.2795238494873,14.299693107605,14.3276901245117,14.3557977676392,14.384015083313,14.4123439788818,14.4407844543457,14.4693384170532,14.4980039596558,14.5267839431763,14.5556793212891,14.5846881866455,14.6138143539429,14.6430568695068,14.6724157333374,14.7018928527832,14.7314891815186,14.7612047195435,14.7910404205322,14.8209972381592,14.8510751724243,14.881275177002,14.9115991592407,14.9420461654663,14.9709129333496,14.9958686828613,15.0209064483643,15.0460290908813,15.0712356567383,15.0965261459351,15.1219024658203,15.1473636627197,15.1729116439819,15.1985454559326,15.2242660522461,15.2500734329224,15.2759685516357,15.3019523620605,15.3280239105225,15.3541851043701,15.3804349899292,15.4067754745483,15.4332065582275,15.4597272872925,15.4763507843018,15.4880027770996,15.4996728897095,15.5113592147827,15.5230646133423,15.5347862243652,15.5465269088745,15.5582847595215,15.5700597763062,15.5818529129028,15.5936651229858,15.6054935455322,15.6173410415649,15.6292066574097,15.6410894393921,15.6529912948608,15.6649103164673,15.6768484115601,15.6888036727905,15.7007780075073,15.7127704620361,15.724781036377,15.7368097305298,15.7488574981689,15.7609233856201,15.7730083465576,15.7851104736328,15.7972326278687,15.8093729019165,15.8215312957764,15.8337087631226,15.8459053039551,15.8581209182739,15.907057762146,15.9640769958496,16.0215072631836,16.0793514251709,16.1376152038574,16.1963024139404,16.2554187774658,16.3379287719727,16.3381729125977,16.3384094238281,16.3386497497559,16.3388919830322,16.3391304016113,16.3393707275391,16.3396091461182,16.3398513793945,16.3400897979736,16.3403301239014,16.3405704498291,16.3408088684082,16.3410511016846,16.3412895202637,16.3415298461914,16.3417682647705,16.3420066833496,16.3422508239746,16.3424892425537,16.3427295684814,16.3429679870605,16.3432083129883,16.3434505462646,16.3436908721924,16.3439292907715,16.3441696166992,16.3444080352783,16.3446483612061,16.3448925018311,16.3451290130615,16.3453712463379,16.3456077575684,16.3458499908447,16.3460884094238,16.3463287353516,16.3465709686279,16.3468074798584,16.3470516204834,16.3472900390625,16.3475303649902,16.347770690918,16.3480091094971,16.3482475280762,16.3484897613525,16.3487319946289,16.3489723205566,16.3492126464844,16.3494510650635,16.3496913909912,16.3499298095703,16.3501720428467,16.3504104614258,16.3506507873535,16.3508911132812,16.351131439209,16.3513717651367,16.3516120910645,16.3518524169922,16.3520927429199,16.3523330688477,16.3525714874268,16.3528156280518,16.3530559539795,16.3532943725586,16.3535346984863,16.3537769317627,16.3540172576904,16.3542556762695,16.3544940948486,16.3547325134277,16.3549766540527,16.3552188873291,16.3554573059082,16.3556976318359,16.355936050415,16.3561782836914,16.3564205169678,16.3566608428955,16.3569011688232,16.3571376800537,16.3573799133301,16.3576202392578,16.3578605651855,16.3581008911133,16.358341217041,16.3585815429688,16.3588218688965,16.3590621948242,16.3593044281006,16.359546661377,16.3597850799561,16.3600273132324,16.3602676391602,16.3605079650879,16.3607482910156,16.3609867095947,16.3612270355225,16.3614673614502,16.3617095947266
12.2284994125366,12.2301445007324,12.2317905426025,12.2334365844727,12.2350835800171,12.2367305755615,12.238377571106,12.2400255203247,12.2416744232178,12.2433233261108,12.2449731826782,12.2466220855713,12.248272895813,12.2499237060547,12.2515745162964,12.2532262802124,12.2548780441284,12.2565307617188,12.2581834793091,12.2598371505737,12.2614908218384,12.2631454467773,12.2650518417358,12.2742986679077,12.2835597991943,12.2928342819214,12.3021230697632,12.3114261627197,12.320743560791,12.3300743103027,12.3394203186035,12.3487796783447,12.3581533432007,12.3675413131714,12.3769435882568,12.386360168457,12.395791053772,12.4052362442017,12.4146957397461,12.4241695404053,12.4336585998535,12.4431610107422,12.4526786804199,12.4622106552124,12.4717578887939,12.4813194274902,12.4908952713013,12.5004854202271,12.5100917816162,12.5197114944458,12.5293464660645,12.5389966964722,12.5486612319946,12.5583410263062,12.5680360794067,12.5777454376221,12.5874700546265,12.5972099304199,12.6069650650024,12.6167345046997,12.626519203186,12.6363201141357,12.6461353302002,12.6559658050537,12.6658124923706,12.6756734848022,12.6855497360229,12.695442199707,12.7053499221802,12.7152729034424,12.7252111434937,12.7351655960083,12.745135307312,12.7551202774048,12.7651214599609,12.7751379013062,12.7851705551147,12.7952184677124,12.8052825927734,12.8153629302979,12.8254585266113,12.8355703353882,12.8456974029541,12.8558406829834,12.8660011291504,12.8761768341064,12.8863677978516,12.8965759277344,12.9068002700806,12.9170408248901,12.9272975921631,12.9371280670166,12.942982673645,12.9488430023193,12.9547090530396,12.9605798721313,12.966456413269,12.9723386764526,12.9782257080078,12.9841175079346,12.9900150299072,12.9959182739258,13.0018272399902,13.0077409744263,13.0136604309082,13.0195846557617,13.1330499649048,13.1831846237183,13.1995496749878,13.2159557342529,13.2324028015137,13.2488899230957,13.2654190063477,13.2819890975952,13.2986001968384,13.3152532577515,13.3319482803345,13.3486852645874,13.3654642105103,13.382285118103,13.39914894104,13.416054725647,13.4330034255981,13.4499950408936,13.4670295715332,13.4841079711914,13.5012292861938,13.5183935165405,13.5356025695801,13.5528545379639,13.5701513290405,13.5874919891357,13.6048765182495,13.6223058700562,13.63978099823,13.6572999954224,13.6748638153076,13.6924734115601,13.7101278305054,13.7278280258179,13.7455749511719,13.7633666992188,13.7812051773071,13.7990894317627,13.8170204162598,13.8349981307983,13.8530225753784,13.8710947036743,13.8892135620117,13.9073791503906,13.9255933761597,13.9438543319702,13.9621639251709,13.9805221557617,13.9989280700684,14.0173826217651,14.0358858108521,14.0544376373291,14.0730390548706,14.0916891098022,14.1103897094727,14.1291389465332,14.1479387283325,14.1667881011963,14.1856880187988,14.2046394348145,14.2236404418945,14.2426919937134,14.2617959976196,14.2882995605469,14.3162527084351,14.3443145751953,14.3724870681763,14.4007711410522,14.4291658401489,14.4576730728149,14.4862928390503,14.5150260925293,14.5438737869263,14.5728368759155,14.6019153594971,14.6311092376709,14.66042137146,14.6898508071899,14.7193975448608,14.7490644454956,14.7788515090942,14.8087577819824,14.8387861251831,14.8689365386963,14.8992099761963,14.9249353408813,14.9497375488281,14.9746217727661,14.9995899200439,15.024640083313,15.0497751235962,15.0749940872192,15.1002979278564,15.1256866455078,15.1511602401733,15.1767206192017,15.2023677825928,15.2281007766724,15.2539215087891,15.2798299789429,15.3058261871338,15.3319120407104,15.3580856323242,15.384349822998,15.4107036590576,15.4371471405029,15.4587535858154,15.4703788757324,15.4820213317871,15.4936819076538,15.5053596496582,15.5170555114746,15.5287685394287,15.5404996871948,15.5522489547729,15.5640153884888,15.5757989883423,15.5876016616821,15.5994215011597,15.6112594604492,15.6231155395508,15.6349897384644,15.6468811035156,15.6587915420532,15.6707201004028,15.6826658248901,15.6946306228638,15.7066135406494,15.7186155319214,15.7306346893311,15.7426729202271,15.7547292709351,15.7668046951294,15.7788982391357,15.7910099029541,15.8031406402588,15.8152894973755,15.8274574279785,15.8396444320679,15.8518505096436,15.8640747070312,15.8763179779053,15.9053478240967,15.9623546600342,16.0197715759277,16.0776042938232,16.1358547210693,16.1945304870605,16.2079925537109,16.2082290649414,16.2084674835205,16.2087020874023,16.2089366912842,16.2091732025146,16.2094097137451,16.2096462249756,16.2098808288574,16.2101173400879,16.2103538513184,16.2105903625488,16.2108268737793,16.2110614776611,16.2112998962402,16.2115306854248,16.2117710113525,16.2120056152344,16.2122440338135,16.2124805450439,16.2127132415771,16.2129535675049,16.2131881713867,16.2134246826172,16.213659286499,16.2138977050781,16.2141304016113,16.2143707275391,16.2146053314209,16.2148399353027,16.2150783538818,16.2153129577637,16.2155475616455,16.2157878875732,16.2160243988037,16.2162590026855,16.216495513916,16.2167320251465,16.2169666290283,16.2172031402588,16.2174396514893,16.2176780700684,16.2179107666016,16.2181491851807,16.2183876037598,16.2186222076416,16.2188587188721,16.2190933227539,16.219331741333,16.2195663452148,16.2198028564453,16.2200374603271,16.2202758789062,16.2205123901367,16.2207469940186,16.2209873199463,16.2212238311768,16.2214584350586,16.2216911315918,16.2219314575195,16.22216796875,16.2224044799805,16.2226428985596,16.2228775024414,16.2231159210205,16.2233486175537,16.2235870361328,16.2238216400146,16.2240600585938,16.2242946624756,16.2245311737061,16.2247695922852,16.2250061035156,16.2252426147461,16.2254791259766,16.225715637207,16.2259521484375,16.226188659668,16.2264251708984,16.2266597747803,16.226900100708,16.2271347045898,16.2273731231689,16.2276077270508,16.2278423309326,16.2280788421631,16.2283172607422,16.2285537719727,16.2287883758545,16.2290287017822,16.2292633056641,16.2294998168945,16.229736328125,16.2299747467041,16.2302112579346,16.2304439544678
12.2238636016846,12.2255077362061,12.2271518707275,12.2287969589233,12.2304420471191,12.2320880889893,12.2337350845337,12.2353811264038,12.2370290756226,12.238676071167,12.2403240203857,12.2419729232788,12.2436218261719,12.2452716827393,12.2469215393066,12.248571395874,12.2502222061157,12.2518739700317,12.2535257339478,12.2551774978638,12.2568302154541,12.2584829330444,12.2601366043091,12.2617902755737,12.2634449005127,12.2650995254517,12.2707834243774,12.2800388336182,12.2893085479736,12.2985916137695,12.3078899383545,12.3172016143799,12.32652759552,12.3358669281006,12.3452215194702,12.3545894622803,12.3639717102051,12.3733682632446,12.3827800750732,12.3922052383423,12.4016447067261,12.4110994338989,12.4205675125122,12.4300508499146,12.4395484924316,12.4490604400635,12.4585866928101,12.4681282043457,12.4776840209961,12.4872541427612,12.4968395233154,12.5064392089844,12.5160541534424,12.5256834030151,12.535327911377,12.5449867248535,12.5546607971191,12.5643501281738,12.5740537643433,12.5837726593018,12.5935068130493,12.6032562255859,12.6130199432373,12.6227998733521,12.6325941085815,12.6424036026001,12.6522283554077,12.6620683670044,12.6719245910645,12.6817951202393,12.6916818618774,12.7015829086304,12.7115001678467,12.7214326858521,12.7313814163208,12.7413454055786,12.7513246536255,12.7613191604614,12.7713298797607,12.7813568115234,12.7913990020752,12.801456451416,12.8115301132202,12.8216199874878,12.8317260742188,12.8418474197388,12.8519849777222,12.8621377944946,12.8723077774048,12.8824939727783,12.8926954269409,12.9029130935669,12.9131469726562,12.9222917556763,12.9281339645386,12.9339809417725,12.9398326873779,12.9456911087036,12.9515533447266,12.9574213027954,12.9632949829102,12.9691743850708,12.975058555603,12.9809474945068,12.9868431091309,12.9927425384521,12.9986486434937,13.0045595169067,13.0104761123657,13.0840978622437,13.1844005584717,13.2007684707642,13.2171773910522,13.2336273193359,13.2501182556152,13.2666492462158,13.2832231521606,13.2998371124268,13.3164939880371,13.3331918716431,13.3499317169189,13.3667135238647,13.3835382461548,13.4004049301147,13.4173135757446,13.4342660903931,13.4512605667114,13.4682989120483,13.4853792190552,13.5025043487549,13.5196723937988,13.5368843078613,13.5541391372681,13.571439743042,13.5887832641602,13.6061716079712,13.6236047744751,13.6410818099976,13.6586046218872,13.6761722564697,13.6937847137451,13.7114429473877,13.7291469573975,13.7468967437744,13.7646923065186,13.7825336456299,13.8004217147827,13.8183565139771,13.8363370895386,13.8543653488159,13.8724403381348,13.8905630111694,13.9087324142456,13.9269495010376,13.9452152252197,13.9635276794434,13.9818887710571,14.000298500061,14.0187568664551,14.0372638702393,14.0558195114136,14.074423789978,14.0930786132812,14.1117820739746,14.1305351257324,14.149338722229,14.16819190979,14.1870956420898,14.2060508728027,14.2250556945801,14.2491254806519,14.2769250869751,14.3048324584961,14.3328504562378,14.3609781265259,14.3892154693604,14.4175653457642,14.446026802063,14.4746007919312,14.5032873153687,14.5320882797241,14.5610046386719,14.5900354385376,14.6191825866699,14.6484460830688,14.6778268814087,14.7073259353638,14.7369441986084,14.7666816711426,14.7965393066406,14.8265180587769,14.8546705245972,14.8792390823364,14.9038896560669,14.9286212921143,14.9534358978271,14.9783325195312,15.0033121109009,15.0283756256104,15.0535230636597,15.0787544250488,15.1040706634521,15.1294717788696,15.1549596786499,15.1805324554443,15.2061920166016,15.2319383621216,15.2577714920044,15.2836933135986,15.30970287323,15.3358011245728,15.3619890213013,15.3882656097412,15.4146327972412,15.4410905838013,15.4527950286865,15.4644107818604,15.4760446548462,15.487696647644,15.4993648529053,15.5110521316528,15.5227556228638,15.534478187561,15.5462169647217,15.5579748153687,15.5697498321533,15.58154296875,15.5933532714844,15.6051826477051,15.6170291900635,15.6288938522339,15.6407766342163,15.6526775360107,15.6645965576172,15.6765336990356,15.6884889602661,15.7004623413086,15.7124547958374,15.7244644165039,15.7364931106567,15.7485399246216,15.7606058120728,15.7726898193359,15.7847919464111,15.7969131469727,15.8090534210205,15.8212118148804,15.8333883285522,15.8455848693848,15.8577995300293,15.8700323104858,15.882285118103,15.8945560455322,15.9068470001221,15.9606323242188,16.0180377960205,16.0758571624756,16.0798721313477,16.0801086425781,16.0803394317627,16.0805702209473,16.0808010101318,16.0810356140137,16.0812683105469,16.0815010070801,16.0817317962646,16.0819644927979,16.0821971893311,16.0824279785156,16.0826625823975,16.0828952789307,16.0831279754639,16.0833587646484,16.0835914611816,16.0838222503662,16.0840587615967,16.0842914581299,16.0845222473145,16.0847549438477,16.0849857330322,16.0852184295654,16.08544921875,16.0856857299805,16.0859146118164,16.086145401001,16.0863819122314,16.086612701416,16.0868473052979,16.0870780944824,16.0873107910156,16.0875415802002,16.087776184082,16.0880088806152,16.0882434844971,16.088472366333,16.0887050628662,16.0889415740967,16.0891723632812,16.0894050598145,16.089635848999,16.0898704528809,16.0901031494141,16.0903339385986,16.0905685424805,16.090799331665,16.0910320281982,16.0912628173828,16.0914974212646,16.0917301177979,16.0919628143311,16.0921974182129,16.0924263000488,16.0926609039307,16.0928936004639,16.0931262969971,16.0933589935303,16.0935916900635,16.093822479248,16.0940570831299,16.0942897796631,16.0945224761963,16.0947551727295,16.0949878692627,16.0952205657959,16.0954532623291,16.0956878662109,16.0959205627441,16.0961532592773,16.0963859558105,16.0966167449951,16.096851348877,16.0970821380615,16.0973167419434,16.0975494384766,16.0977821350098,16.0980167388916,16.0982475280762,16.0984802246094,16.0987129211426,16.0989456176758,16.099178314209,16.0994129180908,16.0996437072754,16.0998802185059,16.1001129150391,16.1003456115723,16.1005783081055,16.10080909729,16.1010417938232,16.1012744903564
12.2192306518555,12.2208738327026,12.2225170135498,12.2241611480713,12.2258052825928,12.2274494171143,12.2290945053101,12.2307405471802,12.2323865890503,12.2340326309204,12.2356796264648,12.2373266220093,12.238974571228,12.2406234741211,12.2422714233398,12.2439203262329,12.2455701828003,12.2472200393677,12.2488708496094,12.2505216598511,12.2521724700928,12.2538242340088,12.2554769515991,12.2571296691895,12.2587823867798,12.2604360580444,12.2620897293091,12.263744354248,12.265398979187,12.2672700881958,12.2765197753906,12.2857847213745,12.2950630187988,12.3043546676636,12.3136615753174,12.3229818344116,12.3323163986206,12.3416652679443,12.3510274887085,12.3604049682617,12.3697957992554,12.3792018890381,12.3886222839355,12.3980560302734,12.4075050354004,12.4169683456421,12.4264450073242,12.4359378814697,12.4454441070557,12.4549646377563,12.4645004272461,12.4740505218506,12.4836158752441,12.4931955337524,12.5027894973755,12.5123987197876,12.5220222473145,12.5316610336304,12.5413150787354,12.5509834289551,12.5606660842896,12.5703649520874,12.580078125,12.5898065567017,12.5995492935181,12.6093082427979,12.6190814971924,12.628870010376,12.6386737823486,12.6484928131104,12.6583280563354,12.6681776046753,12.6780424118042,12.6879224777222,12.6978187561035,12.7077302932739,12.7176570892334,12.7275991439819,12.7375564575195,12.7475299835205,12.7575197219849,12.767523765564,12.7775449752808,12.7875804901123,12.7976322174072,12.8077001571655,12.8177843093872,12.8278837203979,12.8379993438721,12.8481302261353,12.8582782745361,12.8684415817261,12.8786211013794,12.8888168334961,12.8990287780762,12.9074907302856,12.9133186340332,12.9191522598267,12.924991607666,12.930835723877,12.9366846084595,12.9425392150879,12.9483995437622,12.9542646408081,12.9601354598999,12.9660110473633,12.9718923568726,12.9777793884277,12.9836711883545,12.9895687103271,12.9954710006714,13.0013799667358,13.0355100631714,13.155366897583,13.2019872665405,13.2184000015259,13.2348518371582,13.2513456344604,13.2678804397583,13.2844572067261,13.3010749816895,13.3177337646484,13.3344354629517,13.3511781692505,13.3679637908936,13.3847913742065,13.4016609191895,13.4185733795166,13.435528755188,13.4525260925293,13.4695672988892,13.4866514205933,13.5037794113159,13.5209512710571,13.5381660461426,13.5554246902466,13.5727281570435,13.5900745391846,13.6074666976929,13.6249027252197,13.6423835754395,13.6599092483521,13.6774806976318,13.6950960159302,13.71275806427,13.7304649353027,13.748218536377,13.766016960144,13.7838621139526,13.8017539978027,13.81969165802,13.8376770019531,13.8557081222534,13.8737869262695,13.8919124603271,13.9100856781006,13.9283065795898,13.9465751647949,13.9648914337158,13.9832563400269,14.001669883728,14.020131111145,14.0386419296265,14.057201385498,14.0758094787598,14.0944681167603,14.1131753921509,14.131932258606,14.1507396697998,14.1695966720581,14.1885042190552,14.2101650238037,14.2378120422363,14.265567779541,14.2934312820435,14.3214044570923,14.3494863510132,14.3776798248291,14.4059839248657,14.434398651123,14.462926864624,14.4915676116943,14.5203227996826,14.5491914749146,14.5781755447388,14.6072750091553,14.6364908218384,14.6658239364624,14.6952743530273,14.7248439788818,14.7545328140259,14.7843418121338,14.8094024658203,14.8338212966919,14.8583211898804,14.8829021453857,14.9075651168823,14.9323091506958,14.9571352005005,14.982045173645,15.0070371627808,15.0321130752563,15.0572729110718,15.0825166702271,15.1078453063965,15.1332597732544,15.1587600708008,15.1843452453613,15.210018157959,15.2357769012451,15.2616243362427,15.287558555603,15.3135814666748,15.339693069458,15.365894317627,15.3921842575073,15.4185647964478,15.4352502822876,15.4468402862549,15.4584474563599,15.4700727462769,15.4817152023315,15.4933748245239,15.5050525665283,15.5167474746704,15.5284605026245,15.5401906967163,15.5519390106201,15.5637054443359,15.5754890441895,15.587290763855,15.5991106033325,15.6109476089478,15.622802734375,15.6346769332886,15.6465682983398,15.6584777832031,15.6704053878784,15.68235206604,15.6943159103394,15.706298828125,15.7182989120483,15.730318069458,15.742356300354,15.7544116973877,15.7664861679077,15.7785797119141,15.7906913757324,15.8028211593628,15.8149700164795,15.8271369934082,15.8393239974976,15.8515291213989,15.8637523651123,15.8759956359863,15.8882570266724,15.9005374908447,15.9128370285034,15.9251556396484,15.9535331726074,15.9537649154663,15.9539937973022,15.9542188644409,15.9544496536255,15.9546775817871,15.954909324646,15.9551362991333,15.9553661346436,15.9555921554565,15.9558219909668,15.9560527801514,15.9562788009644,15.9565105438232,15.9567375183105,15.9569654464722,15.9571952819824,15.9574241638184,15.9576549530029,15.9578809738159,15.9581089019775,15.9583396911621,15.9585676193237,15.958797454834,15.9590244293213,15.9592523574829,15.9594831466675,15.9597120285034,15.9599418640137,15.9601707458496,15.9603967666626,15.9606275558472,15.9608554840088,15.9610862731934,15.9613122940063,15.9615430831909,15.9617738723755,15.9619989395142,15.9622316360474,15.9624576568604,15.9626884460449,15.9629154205322,15.9631452560425,15.9633760452271,15.9636030197144,15.9638357162476,15.9640607833862,15.9642906188965,15.9645195007324,15.9647483825684,15.9649772644043,15.9652061462402,15.9654350280762,15.9656639099121,15.965892791748,15.966121673584,15.9663505554199,15.9665784835815,15.9668102264404,15.9670362472534,15.9672679901123,15.9674968719482,15.9677238464355,15.9679546356201,15.9681816101074,15.9684143066406,15.9686412811279,15.9688701629639,15.9690999984741,15.9693288803101,15.9695615768433,15.9697885513306,15.9700202941895,15.9702472686768,15.9704761505127,15.9707050323486,15.9709329605103,15.9711637496948,15.9713926315308,15.9716215133667,15.971851348877,15.9720802307129,15.9723081588745,15.9725370407104,15.9727659225464,15.9729976654053,15.9732246398926,15.9734563827515,15.9736852645874,15.9739122390747,15.9741439819336
12.2146024703979,12.2162437438965,12.2178859710693,12.2195281982422,12.2211713790894,12.2228145599365,12.224458694458,12.2261028289795,12.2277479171753,12.2293930053711,12.2310380935669,12.232684135437,12.2343311309814,12.2359781265259,12.2376251220703,12.2392730712891,12.2409219741821,12.2425699234009,12.2442197799683,12.2458686828613,12.247519493103,12.2491693496704,12.2508201599121,12.2524719238281,12.2541236877441,12.2557764053345,12.2574291229248,12.2590818405151,12.2607355117798,12.2623891830444,12.2640438079834,12.2656993865967,12.2673540115356,12.273003578186,12.2822618484497,12.2915353775024,12.3008222579956,12.3101234436035,12.3194379806519,12.3287677764893,12.3381109237671,12.3474683761597,12.356840133667,12.3662261962891,12.3756256103516,12.3850402832031,12.3944692611694,12.4039125442505,12.4133701324463,12.4228420257568,12.4323291778564,12.4418296813965,12.4513454437256,12.4608755111694,12.470419883728,12.4799795150757,12.4895534515381,12.4991416931152,12.5087451934814,12.5183639526367,12.5279970169067,12.5376443862915,12.5473070144653,12.5569849014282,12.5666770935059,12.5763854980469,12.5861072540283,12.5958452224731,12.6055974960327,12.6153659820557,12.6251487731934,12.6349468231201,12.6447601318359,12.6545886993408,12.6644325256348,12.6742916107178,12.6841659545898,12.6940565109253,12.7039613723755,12.7138824462891,12.7238187789917,12.7337713241577,12.7437381744385,12.7537212371826,12.7637205123901,12.7737350463867,12.7837648391724,12.7938108444214,12.8038730621338,12.8139505386353,12.8240442276001,12.834153175354,12.8442783355713,12.854419708252,12.864577293396,12.8747510910034,12.8849401473999,12.8927221298218,12.8985376358032,12.9043579101562,12.9101829528809,12.9160137176514,12.9218502044678,12.9276914596558,12.9335374832153,12.9393901824951,12.9452466964722,12.9511098861694,12.956976890564,12.9628505706787,12.968729019165,12.9746122360229,12.9805021286011,12.9863958358765,12.9922962188721,12.9982013702393,13.1062488555908,13.2032070159912,13.2196216583252,13.2360773086548,13.25257396698,13.2691125869751,13.2856922149658,13.3023118972778,13.3189744949341,13.3356790542603,13.3524255752563,13.3692140579224,13.3860445022583,13.4029169082642,13.4198331832886,13.4367914199829,13.4537925720215,13.4708366394043,13.4879245758057,13.5050554275513,13.5222301483154,13.5394477844238,13.5567102432251,13.5740165710449,13.5913667678833,13.6087617874146,13.6262006759644,13.6436853408813,13.6612148284912,13.6787891387939,13.6964082717896,13.7140731811523,13.7317838668823,13.7495403289795,13.7673425674438,13.7851915359497,13.8030862808228,13.8210277557373,13.8390159606934,13.8570508956909,13.87513256073,13.8932619094849,13.9114389419556,13.9296636581421,13.9479360580444,13.9662561416626,13.9846239089966,14.003041267395,14.0215063095093,14.040020942688,14.0585832595825,14.0771961212158,14.0958576202393,14.1145687103271,14.1333293914795,14.1521406173706,14.1714172363281,14.1989135742188,14.2265176773071,14.2542285919189,14.2820482254028,14.3099765777588,14.3380146026611,14.3661623001099,14.3944206237793,14.4227905273438,14.4512720108032,14.4798669815063,14.5085744857788,14.5373973846436,14.566333770752,14.595386505127,14.6245546340942,14.6538400650024,14.6832427978516,14.7127637863159,14.7402181625366,14.7644100189209,14.7886810302734,14.8130311965942,14.8374624252319,14.8619747161865,14.886568069458,14.9112424850464,14.935998916626,14.9608373641968,14.9857587814331,15.0107641220093,15.035852432251,15.0610246658325,15.0862808227539,15.1116228103638,15.1370496749878,15.1625623703003,15.1881608963013,15.213846206665,15.2396183013916,15.2654781341553,15.2914257049561,15.3174619674683,15.3435869216919,15.369800567627,15.3961048126221,15.41774559021,15.4293098449707,15.4408903121948,15.452488899231,15.4641046524048,15.4757385253906,15.4873895645142,15.4990577697754,15.5107440948486,15.5224475860596,15.5341691970825,15.5459079742432,15.5576648712158,15.5694398880005,15.5812320709229,15.5930423736572,15.6048707962036,15.616717338562,15.6285810470581,15.6404638290405,15.6523637771606,15.6642827987671,15.6762189865112,15.6881742477417,15.7001476287842,15.7121381759644,15.7241487503052,15.7361764907837,15.7482233047485,15.7602882385254,15.7723712921143,15.7844734191895,15.7965936660767,15.8087329864502,15.8208913803101,15.8275918960571,15.8278160095215,15.8280420303345,15.8282651901245,15.8284912109375,15.8287153244019,15.8289403915405,15.8291673660278,15.8293924331665,15.8296184539795,15.8298425674438,15.8300685882568,15.8302927017212,15.8305158615112,15.8307437896729,15.8309659957886,15.8311939239502,15.8314180374146,15.8316421508789,15.8318700790405,15.8320932388306,15.8323221206665,15.8325443267822,15.8327693939209,15.8329944610596,15.8332195281982,15.8334484100342,15.8336706161499,15.8338947296143,15.8341207504272,15.8343467712402,15.8345727920532,15.8347969055176,15.8350210189819,15.8352470397949,15.8354721069336,15.8356981277466,15.8359241485596,15.8361463546753,15.8363733291626,15.836597442627,15.8368253707886,15.8370494842529,15.8372764587402,15.8375005722046,15.8377246856689,15.8379516601562,15.8381757736206,15.8384027481079,15.8386268615723,15.8388528823853,15.8390779495239,15.8393020629883,15.8395309448242,15.8397550582886,15.8399791717529,15.8402042388916,15.8404302597046,15.8406572341919,15.8408823013306,15.8411064147949,15.8413324356079,15.8415575027466,15.8417844772339,15.8420104980469,15.8422317504883,15.8424606323242,15.8426847457886,15.8429117202759,15.8431367874146,15.8433637619019,15.8435897827148,15.8438119888306,15.8440399169922,15.8442640304565,15.8444910049438,15.8447141647339,15.8449401855469,15.8451681137085,15.8453922271729,15.8456201553345,15.8458423614502,15.8460674285889,15.8462944030762,15.8465194702148,15.8467464447021,15.8469705581665,15.8471975326538,15.8474225997925,15.8476486206055,15.8478755950928,15.8480997085571,15.8483247756958,15.8485507965088,15.8487777709961,15.8490028381348
12.2099771499634,12.2116174697876,12.2132587432861,12.2149000167847,12.2165412902832,12.2181835174561,12.2198257446289,12.2214689254761,12.2231121063232,12.2247562408447,12.2264013290405,12.228045463562,12.2296905517578,12.2313365936279,12.232982635498,12.2346296310425,12.2362766265869,12.2379236221313,12.2395715713501,12.2412204742432,12.2428693771362,12.2445182800293,12.2461681365967,12.2478179931641,12.2494688034058,12.2511196136475,12.2527713775635,12.2544231414795,12.2560749053955,12.2577285766602,12.2593812942505,12.2610349655151,12.2626895904541,12.2643442153931,12.265998840332,12.2676544189453,12.2694883346558,12.2787418365479,12.2880096435547,12.2972917556763,12.3065872192383,12.315896987915,12.3252201080322,12.3345584869385,12.3439102172852,12.3532772064209,12.3626575469971,12.372052192688,12.3814611434937,12.3908843994141,12.4003219604492,12.4097747802734,12.4192409515381,12.4287223815918,12.4382171630859,12.4477272033691,12.4572525024414,12.4667911529541,12.4763450622559,12.4859132766724,12.4954967498779,12.5050945281982,12.5147066116333,12.5243339538574,12.5339765548706,12.5436334609985,12.5533056259155,12.5629930496216,12.5726947784424,12.5824108123779,12.5921430587769,12.6018896102905,12.6116523742676,12.6214294433594,12.6312217712402,12.6410293579102,12.6508522033691,12.6606903076172,12.6705436706543,12.6804122924805,12.6902961730957,12.7001962661743,12.7101106643677,12.7200412750244,12.7299871444702,12.7399492263794,12.7499265670776,12.7599191665649,12.7699270248413,12.7799520492554,12.7899913787842,12.8000478744507,12.8101186752319,12.8202066421509,12.8303098678589,12.8404293060303,12.8505640029907,12.8607158660889,12.8708829879761,12.8779888153076,12.8837900161743,12.8895969390869,12.8954095840454,12.9012269973755,12.9070491790771,12.9128770828247,12.9187107086182,12.9245491027832,12.9303922653198,12.9362421035767,12.9420957565308,12.9479560852051,12.9538202285767,12.9596910476685,12.9655666351318,12.9714469909668,12.9773330688477,12.9832248687744,12.9891223907471,13.0574970245361,13.1777601242065,13.2208442687988,13.2373027801514,13.2538032531738,13.2703437805176,13.2869262695312,13.3035497665405,13.320216178894,13.3369226455688,13.3536729812622,13.3704643249512,13.3872976303101,13.4041738510132,13.4210929870605,13.4380540847778,13.4550580978394,13.4721059799194,13.4891967773438,13.5063314437866,13.5235090255737,13.5407304763794,13.5579957962036,13.5753049850464,13.592658996582,13.6100568771362,13.6274995803833,13.6449880599976,13.6625204086304,13.6800975799561,13.6977205276489,13.715389251709,13.7331027984619,13.7508630752563,13.768669128418,13.7865209579468,13.8044195175171,13.8223638534546,13.8403558731079,13.8583946228027,13.8764801025391,13.8946123123169,13.9127931594849,13.9310207366943,13.9492969512939,13.9676208496094,13.9859924316406,14.004412651062,14.0228815078735,14.0413990020752,14.0599660873413,14.0785818099976,14.0972471237183,14.1159620285034,14.134726524353,14.1602268218994,14.1876802444458,14.2152404785156,14.2429075241089,14.2706832885742,14.2985668182373,14.3265600204468,14.3546628952026,14.3828754425049,14.4112005233765,14.4396362304688,14.4681844711304,14.4968461990356,14.5256223678589,14.5545120239258,14.583517074585,14.6126375198364,14.6418752670288,14.6712303161621,14.6956443786621,14.7196893692017,14.7438135147095,14.7680168151855,14.7922992706299,14.8166627883911,14.8411054611206,14.865629196167,14.8902349472046,14.9149217605591,14.9396896362305,14.9645414352417,14.9894752502441,15.0144920349121,15.0395927429199,15.0647773742676,15.0900468826294,15.1154012680054,15.1408405303955,15.1663665771484,15.1919775009155,15.2176761627197,15.2434616088867,15.2693338394165,15.2952947616577,15.3213443756104,15.3474826812744,15.3737096786499,15.4000272750854,15.4118185043335,15.4233732223511,15.4349451065063,15.4465351104736,15.4581422805786,15.4697666168213,15.4814081192017,15.493067741394,15.5047445297241,15.5164394378662,15.528151512146,15.5398817062378,15.5516300201416,15.5633955001831,15.5751781463623,15.5869798660278,15.5987987518311,15.6106357574463,15.6224908828735,15.6343641281128,15.6462554931641,15.658164024353,15.6700916290283,15.6820373535156,15.6940011978149,15.7031755447388,15.7033967971802,15.7036199569702,15.703839302063,15.7040634155273,15.7042846679688,15.7045059204102,15.7047281265259,15.7049474716187,15.705171585083,15.7053909301758,15.7056140899658,15.7058362960815,15.7060556411743,15.70627784729,15.7065010070801,15.7067232131958,15.7069425582886,15.7071657180786,15.7073879241943,15.7076091766357,15.7078313827515,15.7080516815186,15.70827293396,15.7084951400757,15.7087163925171,15.7089405059814,15.7091608047485,15.7093801498413,15.7096042633057,15.7098255157471,15.7100496292114,15.7102680206299,15.7104902267456,15.710711479187,15.7109336853027,15.7111577987671,15.7113771438599,15.7115993499756,15.7118215560913,15.7120418548584,15.7122659683228,15.7124862670898,15.7127103805542,15.7129316329956,15.7131519317627,15.7133741378784,15.7135963439941,15.7138185501099,15.7140407562256,15.7142610549927,15.7144832611084,15.7147054672241,15.7149276733398,15.7151498794556,15.7153692245483,15.715594291687,15.7158126831055,15.7160387039185,15.7162570953369,15.7164793014526,15.716703414917,15.7169246673584,15.7171487808228,15.7173671722412,15.7175893783569,15.7178115844727,15.7180337905884,15.7182569503784,15.7184791564941,15.7186994552612,15.718921661377,15.719144821167,15.7193670272827,15.7195892333984,15.7198104858398,15.7200326919556,15.7202529907227,15.7204761505127,15.7206983566284,15.7209215164185,15.7211437225342,15.7213621139526,15.7215890884399,15.7218074798584,15.7220325469971,15.7222547531128,15.7224750518799,15.7226982116699,15.7229194641113,15.7231435775757,15.7233629226685,15.7235851287842,15.7238082885742,15.7240304946899,15.72425365448,15.7244729995728,15.7246971130371,15.7249183654785,15.7251396179199,15.7253637313843,15.7255849838257,15.7258062362671
12.2053556442261,12.2069940567017,12.2086343765259,12.2102737426758,12.2119150161743,12.2135553359985,12.2151966094971,12.2168388366699,12.2184810638428,12.2201232910156,12.2217664718628,12.2234106063843,12.2250537872314,12.2266988754272,12.228343963623,12.2299890518188,12.231635093689,12.2332811355591,12.2349271774292,12.2365751266479,12.2382221221924,12.2398700714111,12.2415189743042,12.2431678771973,12.2448167800903,12.2464666366577,12.2481164932251,12.2497673034668,12.2514190673828,12.2530698776245,12.2547225952148,12.2563743591309,12.2580270767212,12.2596807479858,12.2613344192505,12.2629890441895,12.2646436691284,12.2662982940674,12.2679538726807,12.2696104049683,12.2752237319946,12.2844867706299,12.2937622070312,12.3030529022217,12.3123569488525,12.3216762542725,12.3310079574585,12.3403549194336,12.3497161865234,12.3590908050537,12.368480682373,12.3778839111328,12.3873023986816,12.3967342376709,12.4061813354492,12.415641784668,12.4251174926758,12.4346075057983,12.4441118240356,12.453631401062,12.4631643295288,12.4727125167847,12.4822759628296,12.4918537139893,12.5014457702637,12.5110521316528,12.5206737518311,12.5303106307983,12.5399618148804,12.5496282577515,12.5593099594116,12.5690059661865,12.5787172317505,12.5884428024292,12.5981845855713,12.6079406738281,12.617712020874,12.627498626709,12.637300491333,12.6471176147461,12.6569499969482,12.6667976379395,12.6766605377197,12.6865386962891,12.6964321136475,12.7063407897949,12.7162656784058,12.7262058258057,12.7361612319946,12.746132850647,12.7561197280884,12.7661228179932,12.7761402130127,12.7861747741699,12.7962245941162,12.8062896728516,12.8163709640503,12.8264684677124,12.8365821838379,12.8467111587524,12.8568563461304,12.8632879257202,12.8690767288208,12.874870300293,12.8806686401367,12.8864727020264,12.8922824859619,12.898097038269,12.9039173126221,12.9097423553467,12.9155721664429,12.921407699585,12.9272489547729,12.9330949783325,12.938946723938,12.944803237915,12.950665473938,12.9565324783325,12.9624052047729,12.9682836532593,12.9741668701172,12.980055809021,13.0091066360474,13.128475189209,13.2220668792725,13.2385292053223,13.2550315856934,13.2715759277344,13.288161277771,13.3047885894775,13.3214569091797,13.3381671905518,13.3549194335938,13.37171459198,13.3885517120361,13.4054307937622,13.4223527908325,13.4393177032471,13.4563245773315,13.4733753204346,13.4904699325562,13.507607460022,13.524787902832,13.542013168335,13.5592813491821,13.5765943527222,13.5939512252808,13.6113529205322,13.6287994384766,13.6462898254395,13.6638259887695,13.6814069747925,13.6990337371826,13.7167053222656,13.7344226837158,13.7521858215332,13.7699947357178,13.7878503799438,13.8057518005371,13.8237009048462,13.8416957855225,13.8597373962402,13.8778266906738,13.8959627151489,13.9141464233398,13.9323787689209,13.9506578445435,13.9689855575562,13.9873609542847,14.0057849884033,14.0242576599121,14.042778968811,14.0613489151001,14.0799684524536,14.0986375808716,14.121750831604,14.1490545272827,14.1764650344849,14.2039813995361,14.2316045761108,14.2593355178833,14.2871751785278,14.3151235580444,14.3431816101074,14.3713493347168,14.3996286392212,14.4280195236206,14.456521987915,14.4851369857788,14.5138664245605,14.5427093505859,14.5716676712036,14.6007404327393,14.627516746521,14.6513395309448,14.6752395629883,14.6992177963257,14.7232751846313,14.747410774231,14.7716255187988,14.7959203720093,14.8202953338623,14.8447504043579,14.8692865371704,14.8939037322998,14.9186019897461,14.9433832168579,14.9682464599609,14.9931926727295,15.0182228088379,15.0433359146118,15.0685329437256,15.0938148498535,15.1191816329956,15.1446342468262,15.1701726913452,15.1957969665527,15.221508026123,15.2473068237305,15.2731924057007,15.2991666793823,15.3252286911011,15.3513803482056,15.3776206970215,15.3943672180176,15.4058961868286,15.417441368103,15.4290046691895,15.4405860900879,15.4521837234497,15.4637994766235,15.4754323959351,15.4870824813843,15.4987506866455,15.5104360580444,15.5221395492554,15.533860206604,15.5455989837646,15.5573558807373,15.5691299438477,15.5807037353516,15.5809192657471,15.5811386108398,15.581356048584,15.5815753936768,15.5817928314209,15.582010269165,15.5822296142578,15.5824460983276,15.5826663970947,15.5828838348389,15.583101272583,15.5833206176758,15.5835380554199,15.5837574005127,15.5839729309082,15.5841960906982,15.5844116210938,15.5846271514893,15.584849357605,15.5850658416748,15.5852861404419,15.5855016708374,15.5857191085815,15.5859384536743,15.5861568450928,15.5863761901855,15.5865936279297,15.5868129730225,15.5870313644409,15.5872488021851,15.5874681472778,15.5876865386963,15.5879020690918,15.5881233215332,15.588339805603,15.5885610580444,15.5887775421143,15.5889930725098,15.5892143249512,15.589430809021,15.5896520614624,15.5898675918579,15.5900840759277,15.5903062820435,15.5905237197876,15.5907440185547,15.5909595489502,15.5911798477173,15.5913972854614,15.5916156768799,15.5918340682983,15.5920534133911,15.5922737121582,15.5924892425537,15.5927076339722,15.5929260253906,15.5931434631348,15.5933647155762,15.5935821533203,15.5937986373901,15.5940189361572,15.59423828125,15.5944566726685,15.5946750640869,15.5948905944824,15.5951118469238,15.5953273773193,15.5955495834351,15.5957660675049,15.595983505249,15.5962047576904,15.5964202880859,15.5966415405273,15.5968589782715,15.5970754623413,15.5972957611084,15.5975141525269,15.5977344512939,15.5979509353638,15.5981721878052,15.5983896255493,15.5986080169678,15.5988273620605,15.599045753479,15.5992641448975,15.5994825363159,15.5997009277344,15.5999212265015,15.6001396179199,15.6003580093384,15.6005754470825,15.6007928848267,15.6010141372681,15.6012306213379,15.6014518737793,15.6016702651978,15.6018867492676,15.6021070480347,15.6023235321045,15.6025447845459,15.6027631759644,15.6029815673828,15.6032009124756,15.6034173965454,15.6036386489868,15.6038570404053,15.6040754318237,15.6042947769165,15.6045112609863
12.2007369995117,12.2023754119873,12.2040138244629,12.2056522369385,12.2072916030884,12.2089309692383,12.2105712890625,12.2122116088867,12.2138528823853,12.2154941558838,12.2171363830566,12.2187786102295,12.2204208374023,12.2220640182495,12.223708152771,12.2253522872925,12.226996421814,12.2286415100098,12.2302865982056,12.2319326400757,12.2335786819458,12.2352256774902,12.2368726730347,12.2385206222534,12.2401685714722,12.2418174743652,12.2434663772583,12.2451152801514,12.2467651367188,12.2484159469604,12.2500667572021,12.2517175674438,12.2533693313599,12.2550210952759,12.2566738128662,12.2583265304565,12.2599802017212,12.2616338729858,12.2632884979248,12.2649431228638,12.2665987014771,12.2682542800903,12.2699098587036,12.27170753479,12.2809648513794,12.2902355194092,12.2995204925537,12.308819770813,12.318133354187,12.3274602890015,12.3368015289307,12.3461570739746,12.3555269241333,12.3649110794067,12.3743085861206,12.3837213516235,12.3931484222412,12.4025897979736,12.4120454788208,12.4215154647827,12.4309997558594,12.4404983520508,12.4500122070312,12.4595403671265,12.4690828323364,12.4786396026611,12.4882116317749,12.4977989196777,12.5074005126953,12.5170164108276,12.526647567749,12.5362930297852,12.5459537506104,12.5556287765503,12.5653200149536,12.5750246047974,12.5847454071045,12.5944805145264,12.6042318344116,12.6139974594116,12.6237783432007,12.6335735321045,12.6433849334717,12.6532115936279,12.6630535125732,12.6729106903076,12.6827831268311,12.6926708221436,12.7025737762451,12.7124929428101,12.7224264144897,12.7323770523071,12.7423419952393,12.7523231506348,12.7623195648193,12.7723321914673,12.7823600769043,12.7924032211304,12.8024625778198,12.8125381469727,12.8226299285889,12.8327369689941,12.8428506851196,12.8486213684082,12.854395866394,12.8601770401001,12.8659620285034,12.871753692627,12.8775491714478,12.8833503723145,12.8891572952271,12.8949689865112,12.9007863998413,12.906608581543,12.9124355316162,12.9182682037354,12.9241065979004,12.929949760437,12.9357986450195,12.9416522979736,12.9475116729736,12.9533767700195,12.959246635437,12.9651212692261,12.971001625061,12.9768877029419,13.0795583724976,13.2002296447754,13.2397546768188,13.2562608718872,13.2728080749512,13.2893962860107,13.3060264587402,13.3226985931396,13.3394117355347,13.3561677932739,13.3729648590088,13.3898048400879,13.4066877365112,13.4236125946045,13.440580368042,13.4575910568237,13.474645614624,13.4917430877686,13.5088834762573,13.5260677337646,13.5432958602905,13.560567855835,13.5778837203979,13.5952444076538,13.6126489639282,13.6300983428955,13.6475925445557,13.6651315689087,13.6827163696289,13.700345993042,13.7180213928223,13.7357416152954,13.7535085678101,13.7713212966919,13.7891807556152,13.8070850372314,13.8250370025635,13.843035697937,13.8610811233521,13.8791742324829,13.8973140716553,13.9155015945435,13.9337368011475,13.9520196914673,13.9703502655029,13.9887294769287,14.0071563720703,14.0256328582764,14.0441579818726,14.0627317428589,14.0834827423096,14.1106386184692,14.137900352478,14.1652669906616,14.1927394866943,14.2203197479248,14.2480068206787,14.2758016586304,14.3037061691284,14.3317184448242,14.359842300415,14.3880758285522,14.4164209365845,14.4448776245117,14.4734468460083,14.5021295547485,14.5309257507324,14.5598363876343,14.5836210250854,14.6073007583618,14.6310577392578,14.6548919677734,14.6788034439087,14.7027931213379,14.7268619537354,14.7510099411011,14.7752361297607,14.7995433807373,14.8239297866821,14.8483963012695,14.8729448318481,14.8975744247437,14.9222850799561,14.947078704834,14.9719543457031,14.9969129562378,15.021954536438,15.047080039978,15.0722904205322,15.0975847244263,15.1229648590088,15.1484298706055,15.1739807128906,15.1996183395386,15.225341796875,15.2511529922485,15.2770519256592,15.3030395507812,15.3291149139404,15.3552799224854,15.3769550323486,15.3884572982788,15.399977684021,15.4115142822266,15.4230690002441,15.4346408843994,15.4462299346924,15.457836151123,15.4603385925293,15.4605541229248,15.460768699646,15.4609842300415,15.4611968994141,15.4614124298096,15.4616279602051,15.4618425369263,15.4620580673218,15.4622716903687,15.4624853134155,15.4627027511597,15.4629173278809,15.4631328582764,15.4633464813232,15.4635601043701,15.4637775421143,15.4639902114868,15.4642057418823,15.4644212722778,15.4646368026733,15.4648504257202,15.4650640487671,15.4652814865112,15.4654951095581,15.4657106399536,15.4659242630005,15.4661388397217,15.4663572311401,15.4665689468384,15.4667863845825,15.4669981002808,15.4672136306763,15.4674291610718,15.4676446914673,15.4678583145142,15.4680738449097,15.4682893753052,15.4685049057007,15.4687194824219,15.4689350128174,15.4691486358643,15.4693622589111,15.4695796966553,15.4697942733765,15.470009803772,15.4702253341675,15.4704370498657,15.4706554412842,15.4708690643311,15.4710845947266,15.4712982177734,15.4715166091919,15.4717302322388,15.4719438552856,15.4721622467041,15.4723739624023,15.4725923538208,15.4728059768677,15.4730195999146,15.4732360839844,15.4734497070312,15.4736680984497,15.4738817214966,15.4740943908691,15.4743118286133,15.4745244979858,15.4747409820557,15.4749565124512,15.475170135498,15.4753885269165,15.4756011962891,15.4758176803589,15.4760313034058,15.476245880127,15.4764633178711,15.4766759872437,15.4768943786621,15.477108001709,15.4773225784302,15.4775390625,15.4777536392212,15.477970123291,15.4781837463379,15.4784021377563,15.4786128997803,15.4788293838501,15.4790458679199,15.4792613983154,15.4794778823853,15.4796924591064,15.479905128479,15.4801216125488,15.48033618927,15.4805526733398,15.4807691574097,15.4809827804565,15.4811983108521,15.4814138412476,15.4816293716431,15.4818458557129,15.4820594787598,15.4822750091553,15.4824895858765,15.4827079772949,15.4829206466675,15.4831352233887,15.4833536148071,15.4835662841797,15.4837856292725,15.4839973449707,15.4842147827148,15.484429359436,15.4846439361572,15.4848613739014,15.4850749969482
12.1961221694946,12.1977586746216,12.1993961334229,12.2010335922241,12.2026720046997,12.2043104171753,12.2059488296509,12.2075881958008,12.209228515625,12.2108678817749,12.2125091552734,12.214150428772,12.2157917022705,12.217432975769,12.2190761566162,12.2207183837891,12.2223615646362,12.2240056991577,12.2256498336792,12.227294921875,12.2289390563965,12.2305850982666,12.2322311401367,12.2338771820068,12.2355241775513,12.2371711730957,12.2388191223145,12.2404670715332,12.2421159744263,12.2437648773193,12.2454147338867,12.2470645904541,12.2487144470215,12.2503652572632,12.2520170211792,12.2536687850952,12.2553205490112,12.2569732666016,12.2586259841919,12.2602796554565,12.2619333267212,12.2635879516602,12.2652425765991,12.2668981552124,12.2685537338257,12.2702102661133,12.2718667984009,12.2774457931519,12.2867116928101,12.2959909439087,12.3052845001221,12.3145923614502,12.3239145278931,12.3332500457764,12.3425998687744,12.3519649505615,12.3613433837891,12.3707361221313,12.3801431655884,12.3895645141602,12.3990001678467,12.4084501266479,12.417914390564,12.427393913269,12.4368867874146,12.4463949203491,12.4559173583984,12.4654550552368,12.4750061035156,12.4845733642578,12.4941539764404,12.5037498474121,12.5133600234985,12.522985458374,12.5326261520386,12.5422811508179,12.5519504547119,12.561635017395,12.5713348388672,12.5810499191284,12.5907793045044,12.6005249023438,12.6102848052979,12.6200590133667,12.6298494338989,12.6396551132202,12.6494760513306,12.6593112945557,12.6691627502441,12.6790294647217,12.6889114379883,12.6988086700439,12.708722114563,12.7186498641968,12.7285938262939,12.7385530471802,12.7485284805298,12.7585191726685,12.7685251235962,12.7785472869873,12.7885847091675,12.798638343811,12.808708190918,12.818793296814,12.8282308578491,12.8339872360229,12.8397493362427,12.8455171585083,12.8512897491455,12.8570671081543,12.862850189209,12.8686380386353,12.8744316101074,12.8802299499512,12.8860330581665,12.8918428421021,12.8976564407349,12.9034757614136,12.9093008041382,12.9151306152344,12.9209661483765,12.9268064498901,12.9326524734497,12.9385032653809,12.9443597793579,12.9502210617065,12.9560880661011,12.9619607925415,12.9678382873535,13.0310039520264,13.1507768630981,13.2409811019897,13.2574901580811,13.274040222168,13.2906322479248,13.3072652816772,13.3239402770996,13.3406572341919,13.3574151992798,13.3742160797119,13.3910598754883,13.4079446792603,13.4248733520508,13.4418439865112,13.4588584899902,13.4759159088135,13.493016242981,13.5101594924927,13.5273475646973,13.5445785522461,13.5618534088135,13.5791730880737,13.5965366363525,13.6139450073242,13.6313982009888,13.6488952636719,13.6664381027222,13.6840257644653,13.7016592025757,13.7193374633789,13.7370615005493,13.7548322677612,13.772647857666,13.7905101776123,13.8084192276001,13.8263740539551,13.8443765640259,13.8624258041382,13.880521774292,13.8986644744873,13.9168558120728,13.935094833374,13.9533805847168,13.9717149734497,13.9900979995728,14.0085296630859,14.0270090103149,14.0455379486084,14.0724315643311,14.0995445251465,14.126763343811,14.1540870666504,14.1815166473389,14.2090530395508,14.2366962432861,14.2644472122192,14.2923059463501,14.3202743530273,14.348352432251,14.3765411376953,14.4048404693604,14.4332513809204,14.4617748260498,14.4904108047485,14.516526222229,14.5399875640869,14.5635261535645,14.587140083313,14.6108312606812,14.6345996856689,14.6584453582764,14.6823692321777,14.7063703536987,14.730450630188,14.7546100616455,14.7788486480713,14.8031673431396,14.8275661468506,14.8520450592041,14.8766050338745,14.9012470245361,14.9259700775146,14.9507751464844,14.9756631851196,15.0006341934204,15.025689125061,15.0508270263672,15.0760498046875,15.1013565063477,15.1267490386963,15.1522264480591,15.1777906417847,15.2034406661987,15.2291774749756,15.2550020217896,15.2809143066406,15.3069143295288,15.3330030441284,15.3418216705322,15.3420333862305,15.342246055603,15.342456817627,15.3426666259766,15.3428792953491,15.3430891036987,15.3433036804199,15.3435115814209,15.3437242507935,15.3439378738403,15.3441467285156,15.3443622589111,15.3445711135864,15.3447828292847,15.3449945449829,15.3452053070068,15.3454170227051,15.3456287384033,15.3458395004272,15.3460512161255,15.3462629318237,15.3464756011963,15.3466854095459,15.3469009399414,15.347110748291,15.3473196029663,15.3475332260132,15.3477449417114,15.3479585647583,15.3481683731079,15.3483791351318,15.3485927581787,15.3488025665283,15.3490161895752,15.3492259979248,15.349437713623,15.3496513366699,15.3498601913452,15.3500747680664,15.3502836227417,15.3504962921143,15.3507080078125,15.3509197235107,15.3511333465576,15.3513431549072,15.3515548706055,15.3517684936523,15.351978302002,15.3521919250488,15.3524017333984,15.352611541748,15.3528251647949,15.3530368804932,15.3532495498657,15.353461265564,15.3536748886108,15.3538866043091,15.3540945053101,15.3543090820312,15.3545198440552,15.3547344207764,15.354944229126,15.3551540374756,15.3553686141968,15.3555784225464,15.3557929992676,15.3560028076172,15.3562126159668,15.3564262390137,15.3566370010376,15.3568525314331,15.3570623397827,15.3572731018066,15.3574867248535,15.3576974868774,15.3579111099243,15.3581218719482,15.3583335876465,15.358546257019,15.3587579727173,15.3589706420898,15.3591823577881,15.3593950271606,15.3596057891846,15.3598175048828,15.360032081604,15.3602428436279,15.3604545593262,15.3606653213501,15.3608751296997,15.3610916137695,15.3613014221191,15.361515045166,15.3617248535156,15.3619375228882,15.3621501922607,15.3623600006104,15.3625764846802,15.3627853393555,15.362998008728,15.3632106781006,15.3634204864502,15.3636350631714,15.3638458251953,15.3640584945679,15.3642711639404,15.3644828796387,15.3646955490112,15.3649082183838,15.3651170730591,15.3653316497803,15.3655405044556,15.3657569885254,15.3659696578979,15.3661804199219,15.3663930892944,15.3666019439697,15.3668165206909,15.3670272827148,15.3672428131104,15.3674535751343
12.1915111541748,12.1931467056274,12.1947822570801,12.196418762207,12.198055267334,12.1996927261353,12.2013301849365,12.2029685974121,12.2046070098877,12.2062454223633,12.2078847885132,12.2095251083374,12.2111654281616,12.2128057479858,12.2144470214844,12.2160892486572,12.2177305221558,12.2193737030029,12.2210159301758,12.2226600646973,12.2243032455444,12.2259473800659,12.2275924682617,12.2292375564575,12.2308826446533,12.2325286865234,12.2341756820679,12.2358226776123,12.2374696731567,12.2391176223755,12.2407655715942,12.2424144744873,12.2440633773804,12.2457132339478,12.2473630905151,12.2490139007568,12.2506647109985,12.2523155212402,12.2539672851562,12.2556200027466,12.2572727203369,12.2589254379272,12.2605791091919,12.2622337341309,12.2638874053955,12.2655429840088,12.2671976089478,12.2688541412354,12.2705097198486,12.2721672058105,12.2739286422729,12.2831888198853,12.2924633026123,12.3017511367798,12.311053276062,12.3203706741333,12.3297004699707,12.3390455245972,12.3484048843384,12.35777759552,12.3671646118164,12.3765668869019,12.3859825134277,12.3954124450684,12.404857635498,12.4143161773682,12.4237899780273,12.4332780838013,12.4427804946899,12.4522972106934,12.4618291854858,12.4713754653931,12.480936050415,12.4905109405518,12.5001010894775,12.5097064971924,12.519326210022,12.5289602279663,12.538610458374,12.5482740402222,12.5579528808594,12.5676469802856,12.577356338501,12.5870809555054,12.5968198776245,12.6065740585327,12.61634349823,12.626127243042,12.6359272003174,12.6457424163818,12.655571937561,12.6654176712036,12.6752786636353,12.685154914856,12.6950454711914,12.7049531936646,12.7148752212524,12.7248134613037,12.734766960144,12.7447357177734,12.7547206878662,12.764720916748,12.7747373580933,12.7847690582275,12.7948160171509,12.8048791885376,12.8136434555054,12.8193874359131,12.8251361846924,12.8308906555176,12.8366498947144,12.8424139022827,12.848183631897,12.8539590835571,12.8597393035889,12.8655242919922,12.8713150024414,12.8771104812622,12.8829116821289,12.8887176513672,12.8945283889771,12.9003458023071,12.9061670303345,12.9119939804077,12.9178266525269,12.9236640930176,12.9295072555542,12.9353551864624,12.9412088394165,12.9470682144165,12.9529323577881,12.9588012695312,12.9828090667725,13.1016931533813,13.2227754592896,13.2587194442749,13.2752733230591,13.2918672561646,13.3085041046143,13.3251819610596,13.3419017791748,13.35866355896,13.375467300415,13.3923139572144,13.4092025756836,13.4261341094971,13.4431085586548,13.4601249694824,13.4771862030029,13.4942893981934,13.5114364624023,13.5286273956299,13.545862197876,13.5631408691406,13.5804634094238,13.5978298187256,13.6152420043945,13.632698059082,13.6501989364624,13.6677446365356,13.6853361129761,13.7029724121094,13.7206544876099,13.7383823394775,13.7561550140381,13.7739753723145,13.7918405532837,13.8097524642944,13.827712059021,13.8457174301147,13.86376953125,13.8818693161011,13.9000158309937,13.9182109832764,13.9364528656006,13.9547424316406,13.9730806350708,13.9914674758911,14.0099020004272,14.0344295501709,14.0613975524902,14.0884685516357,14.1156435012817,14.1429243087769,14.1703109741211,14.1978034973145,14.2254028320312,14.2531099319458,14.2809247970581,14.3088483810425,14.3368816375732,14.3650255203247,14.3932790756226,14.4216451644897,14.450044631958,14.473292350769,14.4966144561768,14.5200128555298,14.5434865951538,14.5670356750488,14.5906610488892,14.6143636703491,14.6381435394287,14.6620006561279,14.6859359741211,14.7099494934082,14.7340412139893,14.7582120895386,14.7824630737305,14.8067932128906,14.8312034606934,14.855694770813,14.8802671432495,14.9049205780029,14.9296560287476,14.9544734954834,14.9793739318848,15.0043573379517,15.0294246673584,15.0545749664307,15.0798101425171,15.1051301956177,15.1305351257324,15.1560258865356,15.1816024780273,15.2072658538818,15.2259407043457,15.2261457443237,15.2263584136963,15.2265644073486,15.2267713546753,15.2269802093506,15.2271881103516,15.2273988723755,15.2276048660278,15.2278137207031,15.2280235290527,15.2282304763794,15.2284393310547,15.2286491394043,15.228856086731,15.2290639877319,15.2292737960815,15.2294836044312,15.2296886444092,15.2298955917358,15.2301092147827,15.2303142547607,15.2305240631104,15.23073387146,15.2309417724609,15.2311487197876,15.2313547134399,15.2315664291382,15.2317733764648,15.2319831848145,15.2321901321411,15.2323999404907,15.2326078414917,15.2328157424927,15.2330274581909,15.2332334518433,15.2334384918213,15.2336502075195,15.2338600158691,15.2340679168701,15.2342758178711,15.2344837188721,15.2346935272217,15.2349004745483,15.2351102828979,15.2353191375732,15.2355260848999,15.2357358932495,15.2359457015991,15.2361545562744,15.2363615036011,15.2365713119507,15.2367792129517,15.2369871139526,15.2371950149536,15.2374029159546,15.2376155853271,15.2378215789795,15.2380275726318,15.2382411956787,15.2384471893311,15.2386569976807,15.2388648986816,15.2390718460083,15.2392835617065,15.2394895553589,15.2397003173828,15.2399082183838,15.2401142120361,15.2403240203857,15.2405347824097,15.2407445907593,15.240948677063,15.241156578064,15.2413692474365,15.2415771484375,15.2417869567871,15.2419958114624,15.2422018051147,15.2424125671387,15.242618560791,15.2428312301636,15.2430391311646,15.2432489395142,15.2434577941895,15.2436637878418,15.2438745498657,15.2440805435181,15.2442932128906,15.2445011138916,15.2447080612183,15.2449207305908,15.2451267242432,15.2453355789185,15.2455415725708,15.2457542419434,15.2459630966187,15.246169090271,15.2463779449463,15.2465887069702,15.2467966079712,15.2470054626465,15.2472162246704,15.2474250793457,15.247631072998,15.2478380203247,15.2480525970459,15.2482595443726,15.2484693527222,15.2486782073975,15.2488851547241,15.2490940093994,15.2493019104004,15.2495136260986,15.2497215270996,15.2499313354492,15.2501392364502,15.2503499984741,15.2505588531494,15.2507658004761,15.2509784698486,15.2511854171753,15.251392364502,15.2516012191772
12.1869029998779,12.1885375976562,12.1901721954346,12.1918067932129,12.1934423446655,12.1950788497925,12.1967153549194,12.1983518600464,12.1999893188477,12.2016267776489,12.2032651901245,12.2049036026001,12.20654296875,12.2081823348999,12.2098217010498,12.211462020874,12.2131032943726,12.2147445678711,12.2163858413696,12.2180280685425,12.2196712493896,12.2213134765625,12.222957611084,12.2246007919312,12.226245880127,12.2278900146484,12.2295351028442,12.2311811447144,12.2328271865845,12.2344741821289,12.2361211776733,12.2377681732178,12.2394161224365,12.2410640716553,12.2427129745483,12.2443618774414,12.2460117340088,12.2476615905762,12.2493124008179,12.2509632110596,12.2526149749756,12.2542667388916,12.2559194564819,12.2575721740723,12.2592248916626,12.2608785629272,12.2625331878662,12.2641878128052,12.2658424377441,12.2674980163574,12.2691535949707,12.2708101272583,12.2724666595459,12.2741241455078,12.2796678543091,12.2889366149902,12.2982196807861,12.3075170516968,12.3168277740479,12.326153755188,12.3354930877686,12.3448467254639,12.3542137145996,12.3635959625244,12.372992515564,12.3824024200439,12.391827583313,12.4012670516968,12.410719871521,12.4201879501343,12.4296703338623,12.4391679763794,12.4486789703369,12.4582052230835,12.4677457809448,12.4773006439209,12.486870765686,12.4964551925659,12.5060548782349,12.5156688690186,12.5252981185913,12.5349416732788,12.5446004867554,12.5542736053467,12.5639619827271,12.5736656188965,12.5833835601807,12.5931167602539,12.6028652191162,12.6126289367676,12.622407913208,12.6322011947632,12.6420106887817,12.651834487915,12.6616744995117,12.6715297698975,12.6813993453979,12.6912851333618,12.7011861801147,12.7111024856567,12.7210350036621,12.7309827804565,12.74094581604,12.7509241104126,12.7609186172485,12.7709293365479,12.7809543609619,12.7909965515137,12.7990894317627,12.80482006073,12.8105564117432,12.8162975311279,12.8220434188843,12.8277950286865,12.8335514068604,12.8393135070801,12.8450803756714,12.8508520126343,12.8566293716431,12.8624114990234,12.8681993484497,12.8739919662476,12.8797903060913,12.8855934143066,12.8914022445679,12.8972158432007,12.9030351638794,12.9088592529297,12.9146890640259,12.9205236434937,12.9263639450073,12.9322090148926,12.9380598068237,12.9439163208008,12.9497776031494,12.9556436538696,13.0529756546021,13.1731538772583,13.2599487304688,13.2765054702759,13.2931032180786,13.3097429275513,13.3264236450195,13.3431463241577,13.3599119186401,13.3767194747925,13.3935680389404,13.4104604721069,13.4273948669434,13.444372177124,13.4613933563232,13.4784564971924,13.4955635070801,13.512713432312,13.5299081802368,13.5471458435059,13.5644273757935,13.5817537307739,13.5991239547729,13.6165390014648,13.6339979171753,13.6515026092529,13.6690511703491,13.6866455078125,13.7042856216431,13.7219705581665,13.7397022247314,13.7574787139893,13.7753019332886,13.7931709289551,13.8110866546631,13.8290491104126,13.8470582962036,13.8651142120361,13.8832168579102,13.9013671875,13.91956615448,13.9378118515015,13.9561052322388,13.9744472503662,13.9966335296631,14.023455619812,14.0503807067871,14.0774087905884,14.1045417785645,14.1317796707153,14.159122467041,14.1865720748901,14.2141275405884,14.2417907714844,14.2695617675781,14.2974405288696,14.3254289627075,14.3535280227661,14.3817367553711,14.4072065353394,14.4303159713745,14.4534997940063,14.4767589569092,14.5000925064087,14.5235013961792,14.5469856262207,14.5705471038818,14.594183921814,14.6178979873657,14.6416893005371,14.6655578613281,14.6895046234131,14.713529586792,14.7376337051392,14.7618160247803,14.786078453064,14.8104209899902,14.8348436355591,14.8593463897705,14.8839311599731,14.9085969924927,14.9333448410034,14.9581747055054,14.9830875396729,15.0080833435059,15.0331621170044,15.0583257675171,15.0835733413696,15.1089057922363,15.1120023727417,15.1122093200684,15.1124124526978,15.1126155853271,15.1128244400024,15.1130266189575,15.1132326126099,15.1134357452393,15.1136417388916,15.1138486862183,15.1140518188477,15.1142597198486,15.1144638061523,15.1146669387817,15.1148719787598,15.1150779724121,15.1152858734131,15.1154890060425,15.1156988143921,15.1159009933472,15.1161041259766,15.1163101196289,15.1165170669556,15.1167249679565,15.1169271469116,15.117130279541,15.117338180542,15.1175422668457,15.1177492141724,15.1179552078247,15.1181573867798,15.1183652877808,15.1185665130615,15.1187763214111,15.1189804077148,15.1191835403442,15.1193943023682,15.1195974349976,15.1198015213013,15.120005607605,15.1202116012573,15.1204195022583,15.1206226348877,15.120831489563,15.1210346221924,15.1212387084961,15.1214447021484,15.1216506958008,15.1218576431274,15.1220607757568,15.1222686767578,15.1224727630615,15.1226768493652,15.1228847503662,15.1230897903442,15.1232957839966,15.1234998703003,15.1237049102783,15.123911857605,15.1241159439087,15.1243238449097,15.124529838562,15.1247320175171,15.1249389648438,15.1251420974731,15.1253528594971,15.1255569458008,15.1257591247559,15.1259660720825,15.1261720657349,15.1263780593872,15.1265821456909,15.1267871856689,15.1269950866699,15.1271991729736,15.1274042129517,15.1276121139526,15.1278142929077,15.1280212402344,15.1282291412354,15.1284341812134,15.1286401748657,15.1288452148438,15.1290531158447,15.1292552947998,15.1294622421265,15.1296682357788,15.1298751831055,15.1300792694092,15.1302824020386,15.1304912567139,15.1306953430176,15.1309022903442,15.1311063766479,15.131311416626,15.1315202713013,15.1317224502563,15.1319332122803,15.132137298584,15.1323404312134,15.1325464248657,15.1327543258667,15.132960319519,15.1331634521484,15.1333703994751,15.1335763931274,15.1337814331055,15.1339883804321,15.1341934204102,15.1343994140625,15.1346044540405,15.1348094940186,15.1350183486938,15.1352214813232,15.1354284286499,15.1356353759766,15.1358394622803,15.1360464096069,15.1362495422363,15.1364603042603,15.1366634368896,15.136866569519,15.137077331543,15.137282371521,15.137487411499
