11.7130727767944,11.7127962112427,11.7125186920166,11.7122421264648,11.7119655609131,11.711688041687,11.7114114761353,11.7111349105835,11.7108583450317,11.71058177948,11.7103042602539,11.7100276947021,11.7097511291504,11.7094745635986,11.7091979980469,11.7089204788208,11.708643913269,11.7083673477173,11.7080907821655,11.7078142166138,11.707537651062,11.7072610855103,11.7069845199585,11.7067079544067,11.706431388855,11.7061548233032,11.7058782577515,11.7056016921997,11.7053251266479,11.7050485610962,11.7047719955444,11.7044954299927,11.7042188644409,11.7039422988892,11.7036666870117,11.70339012146,11.7031135559082,11.7028369903564,11.7025604248047,11.7022838592529,11.7020082473755,11.7017316818237,11.701455116272,11.7011785507202,11.7009029388428,11.700626373291,11.7003498077393,11.7000741958618,11.6997976303101,11.6995210647583,11.6992454528809,11.6989688873291,11.7010498046875,11.7178144454956,11.7346267700195,11.7514877319336,11.7683973312378,11.7853555679321,11.8023624420166,11.8194189071655,11.8365240097046,11.8536796569824,11.8708839416504,11.8897695541382,11.9137239456177,11.9377746582031,11.9619216918945,11.9861679077148,12.0008058547974,12.012188911438,12.0740070343018,12.1364650726318,12.1995725631714,12.2633399963379,12.3277778625488,12.3928956985474,12.4587030410767,12.5251932144165,12.592396736145,12.660325050354,12.7289905548096,12.7984046936035,12.868579864502,12.9395294189453,13.0112676620483,13.0838060379028,13.1571569442749,13.2313365936279,13.3063564300537,13.703989982605,13.7164440155029,13.7289209365845,13.7414197921753,13.7539415359497,13.7664861679077,13.7790546417236,13.7916450500488,13.8002052307129,13.805380821228,13.8105602264404,13.8157434463501,13.820930480957,13.8261213302612,13.8313159942627,13.8365154266357,13.8417177200317,13.8469247817993,13.8521356582642,13.857349395752,13.8625679016113,13.867790222168,13.8730163574219,13.8782472610474,13.8834810256958,13.8887195587158,13.8939609527588,13.8992071151733,13.9044570922852,13.9097108840942,13.9149684906006,13.9202308654785,13.9254970550537,13.9307670593262,13.9360408782959,13.9413185119629,13.9465999603271,13.951886177063,13.9571762084961,13.9624700546265,13.9677677154541,13.973069190979,13.9783754348755,13.9836854934692,13.9889993667603,13.9943170547485,13.9996395111084,14.0049657821655,14.0102958679199,14.0156297683716,14.0209684371948,14.0263109207153,14.0316572189331,14.0370082855225,14.0423622131348,14.0477209091187,14.0530843734741,14.0584506988525,14.0638217926025,14.0691967010498,14.0745763778687,14.0799598693848,14.0853471755981,14.0907382965088,14.096134185791,14.1015338897705,14.1069383621216,14.1123466491699,14.1177587509155,14.1231746673584,14.1285953521729,14.1340208053589,14.1394491195679,14.1448822021484,14.1503190994263,14.1557607650757,14.1612062454224,14.1666564941406,14.1721105575562,14.1775684356689,14.1830310821533,14.188497543335,14.1939687728882,14.1994438171387,14.2049226760864,14.2104063034058,14.2158937454224,14.2213859558105,14.226881980896,14.232382774353,14.2378873825073,14.2433967590332,14.2489099502563,14.2544269561768,14.2599487304688,14.2654752731323,14.2710056304932,14.2765398025513,14.282078742981,14.2876224517822,14.2931699752808,14.2987222671509,14.3042783737183,14.3098382949829,14.3154029846191,14.320972442627,14.326545715332,14.3321237564087,14.3377056121826,14.3432922363281,14.3488836288452,14.3544788360596,14.3600778579712,14.3656826019287,14.3712902069092,14.3769035339355,14.3825206756592,14.3881416320801,14.3937683105469,14.3993978500366,14.4050331115723,14.4131736755371,14.4633798599243,14.5139379501343,14.5648508071899,14.6161222457886,14.6677560806274,14.7197551727295,14.7721252441406,14.8248682022095,14.8779897689819,14.9314937591553,14.9853830337524,15.0396633148193,15.0943384170532,15.1494121551514,15.2048892974854,15.2607746124268,15.3170719146729,15.3737859725952,15.4309215545654,15.4884843826294,15.5548238754272,15.6254482269287,15.6967172622681,15.7686395645142,15.8412237167358,15.9144792556763,15.9884147644043,16.0630416870117,16.283483505249,16.2924175262451,16.3013610839844,16.3103141784668,16.4724922180176,16.6437740325928,16.8187446594238,16.9974346160889,17.1417999267578,17.2865829467773,17.4622535705566,17.6454544067383,17.8336219787598,18.0264091491699,18.3200778961182,18.5740661621094,18.7919597625732,19.0150489807129,0,0,0,0,0,0,0,0,0,0,0,0,0,0,0,0,0,0,0,0,0,0,0,0,0,0,0,0,0,0,0,0,0,0,0,0,0,0,0,0,0,0,0,0,0,0,0,0,0,0,0,0,0,0,0,0,0,0,0,0,0,0,0,0,0,0,0,0,0,0,0,0,0,0,0,0,0,0,0,0,0,0,0,0,0,0,0,0,0,0,0,0,0,0,0,0,0
11.7130556106567,11.7127780914307,11.7125015258789,11.7122249603271,11.7119474411011,11.7116708755493,11.7113943099976,11.7111177444458,11.7108402252197,11.710563659668,11.7102870941162,11.7100105285645,11.7097339630127,11.7094564437866,11.7091798782349,11.7089033126831,11.7086267471313,11.7083501815796,11.7080736160278,11.7077970504761,11.7075204849243,11.7072429656982,11.7069664001465,11.7066898345947,11.706413269043,11.7061367034912,11.7058601379395,11.7055835723877,11.7053079605103,11.7050313949585,11.7047548294067,11.704478263855,11.7042016983032,11.7039251327515,11.7036485671997,11.7033720016479,11.7030954360962,11.7028198242188,11.702543258667,11.7022666931152,11.7019901275635,11.701714515686,11.7014379501343,11.7011613845825,11.7008848190308,11.7006092071533,11.7003326416016,11.7000560760498,11.6997804641724,11.6995038986206,11.6992273330688,11.6989517211914,11.6986751556396,11.7042951583862,11.7210693359375,11.7378911972046,11.7547607421875,11.7716798782349,11.7886476516724,11.8056640625,11.8227300643921,11.8424024581909,11.8661651611328,11.8900241851807,11.9139785766602,11.9380302429199,11.96217918396,11.9818925857544,11.9898118972778,12.012321472168,12.0741415023804,12.1366014480591,12.1997098922729,12.2634792327881,12.3279180526733,12.3930377960205,12.4588356018066,12.5253267288208,12.5925312042236,12.6604614257812,12.7291278839111,12.7985439300537,12.8687210083008,12.9396715164185,13.0114116668701,13.0839509963989,13.1573047637939,13.2314853668213,13.3065071105957,13.6733436584473,13.6857414245605,13.6981620788574,13.7106056213379,13.7230710983276,13.735559463501,13.7477760314941,13.7529125213623,13.7580528259277,13.7631969451904,13.7683439254761,13.7734956741333,13.7786512374878,13.7838106155396,13.7889738082886,13.7941408157349,13.7993116378784,13.8044862747192,13.8096647262573,13.8148469924927,13.8200340270996,13.8252239227295,13.830418586731,13.8356170654297,13.8408184051514,13.8460245132446,13.8512344360352,13.8564481735229,13.861665725708,13.8668880462646,13.8721132278442,13.8773431777954,13.8825759887695,13.8878135681152,13.8930549621582,13.8983001708984,13.9035501480103,13.908802986145,13.9140605926514,13.9193210601807,13.9245862960815,13.929856300354,13.9351291656494,13.9404058456421,13.9456872940063,13.9509725570679,13.9562616348267,13.9615545272827,13.9668521881104,13.9721536636353,13.9774580001831,13.9827680587769,13.9880809783936,13.9933977127075,13.9987201690674,14.0040454864502,14.0093746185303,14.0147085189819,14.0200462341309,14.0253877639771,14.0307331085205,14.0360832214355,14.0414371490479,14.0467948913574,14.0521574020386,14.057523727417,14.0628938674927,14.0682678222656,14.0736465454102,14.079029083252,14.084415435791,14.0898065567017,14.0952014923096,14.1006002426147,14.1060037612915,14.1114110946655,14.1168231964111,14.122239112854,14.1276588439941,14.1330823898315,14.1385107040405,14.1439428329468,14.1493797302246,14.1548204421997,14.1602649688721,14.165714263916,14.1711673736572,14.17662525177,14.1820869445801,14.1875524520874,14.1930227279663,14.1984968185425,14.2039756774902,14.2094583511353,14.2149457931519,14.2204370498657,14.2259321212769,14.2314319610596,14.2369356155396,14.2424440383911,14.2479562759399,14.2534732818604,14.2589950561523,14.2645196914673,14.2700500488281,14.2755832672119,14.2811212539673,14.2866640090942,14.2922105789185,14.2977619171143,14.3033180236816,14.308876991272,14.3144416809082,14.3200101852417,14.3255825042725,14.3311595916748,14.3367414474487,14.3423271179199,14.3479175567627,14.3535118103027,14.3591108322144,14.3647136688232,14.3703212738037,14.3955535888672,14.4456377029419,14.4960718154907,14.5468587875366,14.5980033874512,14.6495084762573,14.7013788223267,14.7536172866821,14.8062286376953,14.8592166900635,14.9125843048096,14.9663381576538,15.0204801559448,15.0750150680542,15.1299476623535,15.1852827072144,15.2416181564331,15.3094205856323,15.3778295516968,15.446852684021,15.5164985656738,15.5867738723755,15.6576900482178,15.7292537689209,15.8014755249023,15.8743629455566,15.947925567627,16.0221729278564,16.3224639892578,16.3314399719238,16.3404273986816,16.3494243621826,16.488130569458,16.659740447998,16.8350296020508,17.0140647888184,17.1643733978271,17.3095417022705,17.4774398803711,17.660961151123,17.8492107391357,18.0423374176025,18.3286781311035,18.5939655303955,18.8123302459717,19.0358867645264,0,0,0,0,0,0,0,0,0,0,0,0,0,0,0,0,0,0,0,0,0,0,0,0,0,0,0,0,0,0,0,0,0,0,0,0,0,0,0,0,0,0,0,0,0,0,0,0,0,0,0,0,0,0,0,0,0,0,0,0,0,0,0,0,0,0,0,0,0,0,0,0,0,0,0,0,0,0,0,0,0,0,0,0,0,0,0,0,0,0,0,0,0,0,0,0
11.7130374908447,11.712760925293,11.7124843597412,11.7122068405151,11.7119302749634,11.7116537094116,11.7113761901855,11.7110996246338,11.710823059082,11.7105464935303,11.7102689743042,11.7099924087524,11.7097158432007,11.7094392776489,11.7091627120972,11.7088861465454,11.7086086273193,11.7083320617676,11.7080554962158,11.7077789306641,11.7075023651123,11.7072257995605,11.7069492340088,11.706672668457,11.7063961029053,11.7061195373535,11.7058429718018,11.70556640625,11.7052898406982,11.7050132751465,11.7047367095947,11.704460144043,11.7041835784912,11.7039079666138,11.703631401062,11.7033548355103,11.7030782699585,11.7028017044067,11.702525138855,11.7022495269775,11.7019729614258,11.701696395874,11.7014198303223,11.7011442184448,11.7008676528931,11.7005910873413,11.7003145217896,11.7000389099121,11.6997623443604,11.6994857788086,11.6992101669312,11.6989336013794,11.698657989502,11.6983814239502,11.7075424194336,11.7243251800537,11.741156578064,11.7580366134644,11.7749643325806,11.79541015625,11.8189849853516,11.8426542282104,11.866418838501,11.8902788162231,11.914234161377,11.938286781311,11.9624366760254,11.9709339141846,11.9788379669189,12.0124549865723,12.074275970459,12.136736869812,12.1998472213745,12.263617515564,12.3280582427979,12.3931770324707,12.4589681625366,12.5254602432251,12.5926666259766,12.6605978012085,12.729266166687,12.7986831665039,12.8688621520996,12.9398145675659,13.0115556716919,13.0840969085693,13.1574516296387,13.2316341400146,13.3066577911377,13.6428337097168,13.6551761627197,13.6675415039062,13.6799287796021,13.6923389434814,13.7008419036865,13.705943107605,13.7110471725464,13.7161560058594,13.7212686538696,13.7263851165771,13.7315053939819,13.736629486084,13.7417573928833,13.7468891143799,13.7520246505737,13.7571640014648,13.7623071670532,13.7674541473389,13.7726049423218,13.777759552002,13.7829189300537,13.7880811691284,13.7932472229004,13.7984180450439,13.8035917282104,13.8087701797485,13.8139514923096,13.8191375732422,13.8243274688721,13.8295202255249,13.8347187042236,13.839919090271,13.8451251983643,13.8503341674805,13.8555469512939,13.860764503479,13.865984916687,13.8712100982666,13.8764390945435,13.8816719055176,13.886908531189,13.8921489715576,13.8973941802979,13.902642250061,13.9078950881958,13.9131517410278,13.9184122085571,13.9236764907837,13.9289445877075,13.9342174530029,13.9394941329956,13.9447746276855,13.9500589370728,13.9553470611572,13.9606399536133,13.9659366607666,13.9712371826172,13.976541519165,13.9818496704102,13.9871625900269,13.9924793243408,13.9977998733521,14.0031242370605,14.0084533691406,14.013786315918,14.0191230773926,14.0244646072388,14.0298089981079,14.0351581573486,14.0405120849609,14.0458688735962,14.051230430603,14.0565958023071,14.0619649887085,14.0673389434814,14.0727167129517,14.0780982971191,14.0834846496582,14.0888748168945,14.0942687988281,14.0996675491333,14.1050701141357,14.1104764938354,14.1158876419067,14.1213026046753,14.1267213821411,14.1321449279785,14.1375722885132,14.1430044174194,14.1484394073486,14.1538801193237,14.1593236923218,14.1647720336914,14.1702251434326,14.1756820678711,14.1811428070068,14.1866073608398,14.1920776367188,14.1975507736206,14.203028678894,14.2085103988647,14.213996887207,14.2194871902466,14.2249822616577,14.2304811477661,14.2359848022461,14.2414922714233,14.2470035552979,14.2525196075439,14.2580404281616,14.2635650634766,14.2690935134888,14.2746267318726,14.2801647186279,14.2857065200806,14.2912521362305,14.296802520752,14.302357673645,14.3079166412354,14.3134794235229,14.3190469741821,14.3246192932129,14.3301954269409,14.3357763290405,14.3779764175415,14.4279384613037,14.4782485961914,14.5289106369019,14.5799293518066,14.6313066482544,14.6830472946167,14.7351560592651,14.7876348495483,14.8404903411865,14.893723487854,14.947340965271,15.0059232711792,15.0716409683228,15.1379365921021,15.2048177719116,15.2722930908203,15.3403701782227,15.4090566635132,15.4783611297607,15.5482912063599,15.6188564300537,15.6900653839111,15.761926651001,15.8344488143921,15.9076414108276,15.9815139770508,16.0560760498047,16.3706512451172,16.3796806335449,16.3887195587158,16.5037994384766,16.6757373809814,16.8513450622559,17.0307292938232,17.1870098114014,17.3325595855713,17.4926528930664,17.6764945983887,17.8648281097412,18.0582942962646,18.3372859954834,18.6139087677002,18.8327445983887,19.0567855834961,0,0,0,0,0,0,0,0,0,0,0,0,0,0,0,0,0,0,0,0,0,0,0,0,0,0,0,0,0,0,0,0,0,0,0,0,0,0,0,0,0,0,0,0,0,0,0,0,0,0,0,0,0,0,0,0,0,0,0,0,0,0,0,0,0,0,0,0,0,0,0,0,0,0,0,0,0,0,0,0,0,0,0,0,0,0,0,0,0,0,0,0,0,0,0
11.713020324707,11.712742805481,11.7124662399292,11.7121896743774,11.7119121551514,11.7116355895996,11.7113590240479,11.7110824584961,11.71080493927,11.7105283737183,11.7102518081665,11.7099752426147,11.709698677063,11.7094211578369,11.7091445922852,11.7088680267334,11.7085914611816,11.7083148956299,11.7080383300781,11.7077617645264,11.7074851989746,11.7072086334229,11.7069320678711,11.7066555023193,11.7063789367676,11.7061023712158,11.7058258056641,11.7055492401123,11.7052726745605,11.7049961090088,11.704719543457,11.7044429779053,11.7041664123535,11.7038898468018,11.70361328125,11.7033367156982,11.7030611038208,11.702784538269,11.7025079727173,11.7022314071655,11.7019548416138,11.7016792297363,11.7014026641846,11.7011260986328,11.7008495330811,11.7005739212036,11.7002973556519,11.7000207901001,11.6997451782227,11.6994686126709,11.6991920471191,11.6989164352417,11.6986398696899,11.6983642578125,11.6980876922607,11.7107915878296,11.7275838851929,11.7487897872925,11.7721786499023,11.7956609725952,11.8192367553711,11.8429069519043,11.8666725158691,11.8905324935913,11.9144897460938,11.9385433197021,11.9521150588989,11.9599943161011,11.967885017395,12.0125875473022,12.0744104385376,12.1368722915649,12.1999845504761,12.2637557983398,12.328197479248,12.3933076858521,12.4590997695923,12.5255937576294,12.5928020477295,12.6607351303101,12.7294044494629,12.7988233566284,12.8690032958984,12.9399566650391,13.0116996765137,13.0842428207397,13.1575994491577,13.231782913208,13.3068084716797,13.6124591827393,13.6247472763062,13.6370573043823,13.6491632461548,13.6542263031006,13.6592922210693,13.6643629074097,13.6694364547729,13.6745147705078,13.6795959472656,13.684681892395,13.6897706985474,13.694863319397,13.6999607086182,13.7050609588623,13.7101650238037,13.7152729034424,13.7203855514526,13.7255010604858,13.7306203842163,13.735743522644,13.7408714294434,13.7460021972656,13.7511367797852,13.7562761306763,13.7614183425903,13.7665643692017,13.7717151641846,13.7768688201904,13.7820272445679,13.7871885299683,13.7923545837402,13.7975244522095,13.8026971817017,13.8078746795654,13.8130559921265,13.8182411193848,13.8234300613403,13.8286228179932,13.8338193893433,13.8390207290649,13.8442249298096,13.8494338989258,13.8546457290649,13.8598623275757,13.8650827407837,13.870306968689,13.8755350112915,13.8807668685913,13.8860034942627,13.891242980957,13.8964872360229,13.9017353057861,13.9069871902466,13.9122428894043,13.9175024032593,13.9227666854858,13.9280338287354,13.9333057403564,13.9385814666748,13.9438619613647,13.9491453170776,13.9544334411621,13.9597253799438,13.9650211334229,13.9703207015991,13.9756240844727,13.9809322357178,13.9862442016602,13.9915599822998,13.996880531311,14.0022039413452,14.007532119751,14.012864112854,14.0182008743286,14.0235404968262,14.0288858413696,14.034234046936,14.0395860671997,14.044942855835,14.0503034591675,14.0556678771973,14.0610370635986,14.0664100646973,14.0717868804932,14.0771684646606,14.0825538635254,14.0879430770874,14.093337059021,14.0987339019775,14.10413646698,14.1095418930054,14.1149520874023,14.1203670501709,14.1257848739624,14.1312074661255,14.1366338729858,14.1420650482178,14.147500038147,14.1529397964478,14.1583833694458,14.1638307571411,14.169282913208,14.1747388839722,14.1801986694336,14.1856632232666,14.1911315917969,14.1966047286987,14.2020816802979,14.2075634002686,14.2130489349365,14.2185382843018,14.2240324020386,14.2295303344727,14.2350330352783,14.2405405044556,14.2460508346558,14.2515668869019,14.2570858001709,14.2626094818115,14.2681379318237,14.2736711502075,14.2792072296143,14.2847480773926,14.2902936935425,14.2958431243896,14.3109464645386,14.3604431152344,14.4102830886841,14.4604692459106,14.51100730896,14.5618991851807,14.6131496429443,14.6647624969482,14.7167406082153,14.7774066925049,14.8411340713501,14.9054126739502,14.9702520370483,15.0356559753418,15.101634979248,15.1681957244873,15.2353458404541,15.303092956543,15.3714447021484,15.4404106140137,15.5099983215332,15.5802154541016,15.6510715484619,15.7225742340088,15.7947340011597,15.8675594329834,15.9410591125488,16.0152435302734,16.4100494384766,16.4191226959229,16.4282054901123,16.5194969177246,16.691764831543,16.8676910400391,17.0474281311035,17.2097034454346,17.355640411377,17.5078907012939,17.6920566558838,17.8804740905762,18.0742797851562,18.3459033966064,18.6338939666748,18.8532028198242,19.0777339935303,0,0,0,0,0,0,0,0,0,0,0,0,0,0,0,0,0,0,0,0,0,0,0,0,0,0,0,0,0,0,0,0,0,0,0,0,0,0,0,0,0,0,0,0,0,0,0,0,0,0,0,0,0,0,0,0,0,0,0,0,0,0,0,0,0,0,0,0,0,0,0,0,0,0,0,0,0,0,0,0,0,0,0,0,0,0,0,0,0,0,0,0,0,0
11.713002204895,11.7127256393433,11.7124490737915,11.7121715545654,11.7118949890137,11.7116184234619,11.7113418579102,11.7110643386841,11.7107877731323,11.7105112075806,11.7102346420288,11.7099571228027,11.709680557251,11.7094039916992,11.7091274261475,11.7088508605957,11.7085742950439,11.7082977294922,11.7080202102661,11.7077436447144,11.7074670791626,11.7071905136108,11.7069139480591,11.7066373825073,11.7063608169556,11.7060842514038,11.7058076858521,11.7055311203003,11.7052545547485,11.7049779891968,11.704701423645,11.7044248580933,11.7041492462158,11.7038726806641,11.7035961151123,11.7033195495605,11.7030429840088,11.702766418457,11.7024908065796,11.7022142410278,11.7019376754761,11.7016611099243,11.7013845443726,11.7011089324951,11.7008323669434,11.7005558013916,11.7002801895142,11.7000036239624,11.6997270584106,11.6994514465332,11.6991748809814,11.6988983154297,11.6986227035522,11.6983461380005,11.698070526123,11.7025375366211,11.7257413864136,11.7490386962891,11.7724285125732,11.7959108352661,11.8194875717163,11.8431596755981,11.866925239563,11.8907871246338,11.9147453308105,11.9333553314209,11.9412097930908,11.9490756988525,11.9569511413574,12.0127201080322,12.0745449066162,12.1370086669922,12.2001218795776,12.26389503479,12.3283367156982,12.3934392929077,12.4592323303223,12.525728225708,12.5929365158081,12.6608715057373,12.7295427322388,12.7989625930786,12.8691444396973,12.9400997161865,13.0118436813354,13.0843877792358,13.1577463150024,13.2319316864014,13.3069581985474,13.5822200775146,13.5944528579712,13.6028985977173,13.6079263687134,13.6129589080811,13.617995262146,13.6230344772339,13.6280784606934,13.6331253051758,13.6381759643555,13.6432304382324,13.6482887268066,13.6533508300781,13.6584167480469,13.6634864807129,13.6685600280762,13.6736373901367,13.6787176132202,13.6838026046753,13.6888914108276,13.6939830780029,13.6990795135498,13.7041788101196,13.709282875061,13.7143907546997,13.7195014953613,13.7246170043945,13.7297353744507,13.7348585128784,13.7399845123291,13.7451152801514,13.7502489089966,13.7553873062134,13.7605295181274,13.7656755447388,13.770824432373,13.7759780883789,13.781135559082,13.7862968444824,13.7914619445801,13.796630859375,13.8018035888672,13.8069801330566,13.8121604919434,13.8173446655273,13.8225326538086,13.8277254104614,13.8329210281372,13.8381214141846,13.8433256149292,13.8485326766968,13.8537445068359,13.8589601516724,13.8641805648804,13.8694038391113,13.8746309280396,13.8798627853394,13.8850984573364,13.8903379440308,13.895580291748,13.9008283615112,13.9060792922974,13.9113340377808,13.9165935516357,13.921856880188,13.9271240234375,13.9323949813843,13.9376697540283,13.9429492950439,13.9482316970825,13.9535188674927,13.9588108062744,13.9641056060791,13.9694042205811,13.9747076034546,13.9800148010254,13.9853258132935,13.9906415939331,13.9959602355957,14.0012836456299,14.0066108703613,14.0119428634644,14.0172786712646,14.0226173400879,14.027961730957,14.0333089828491,14.0386610031128,14.0440168380737,14.0493764877319,14.0547409057617,14.0601091384888,14.0654811859131,14.070858001709,14.0762386322021,14.0816230773926,14.0870113372803,14.0924043655396,14.0978012084961,14.1032028198242,14.1086072921753,14.1140174865723,14.1194305419922,14.1248483657837,14.1302700042725,14.1356964111328,14.1411266326904,14.1465606689453,14.1519994735718,14.1574420928955,14.1628885269165,14.1683397293091,14.1737957000732,14.1792545318604,14.1847190856934,14.1901865005493,14.1956586837769,14.2011346817017,14.206615447998,14.2121000289917,14.2175893783569,14.2230825424194,14.2285804748535,14.2340822219849,14.2395877838135,14.2450981140137,14.2506132125854,14.2561321258545,14.2616548538208,14.2935762405396,14.3429517745972,14.3926696777344,14.4427337646484,14.4944410324097,14.5557460784912,14.6175718307495,14.6799249649048,14.7428121566772,14.8062410354614,14.8702173233032,14.9347486495972,14.9998435974121,15.0655078887939,15.1317491531372,15.1985759735107,15.2659959793091,15.3340167999268,15.4026460647583,15.4718923568726,15.5417642593384,15.6122703552246,15.6834192276001,15.7552185058594,15.8276796340942,15.9008092880249,15.9746179580688,16.0491161346436,16.4587554931641,16.4678821563721,16.5352249145508,16.7078227996826,16.8840713500977,17.0641574859619,17.232458114624,17.3787822723389,17.5276145935059,17.7076454162598,17.8961448669434,18.0902938842773,18.354528427124,18.653923034668,18.8737049102783,19.0987300872803,0,0,0,0,0,0,0,0,0,0,0,0,0,0,0,0,0,0,0,0,0,0,0,0,0,0,0,0,0,0,0,0,0,0,0,0,0,0,0,0,0,0,0,0,0,0,0,0,0,0,0,0,0,0,0,0,0,0,0,0,0,0,0,0,0,0,0,0,0,0,0,0,0,0,0,0,0,0,0,0,0,0,0,0,0,0,0,0,0,0,0,0,0
11.7129850387573,11.7127084732056,11.7124309539795,11.7121543884277,11.711877822876,11.7116003036499,11.7113237380981,11.7110471725464,11.7107706069946,11.7104930877686,11.7102165222168,11.709939956665,11.7096633911133,11.7093868255615,11.7091093063354,11.7088327407837,11.7085561752319,11.7082796096802,11.7080030441284,11.7077264785767,11.7074499130249,11.7071733474731,11.7068967819214,11.7066202163696,11.7063436508179,11.7060670852661,11.7057905197144,11.7055139541626,11.7052373886108,11.7049608230591,11.7046842575073,11.7044076919556,11.7041311264038,11.7038545608521,11.7035779953003,11.7033023834229,11.7030258178711,11.7027492523193,11.7024726867676,11.7021961212158,11.7019205093384,11.7016439437866,11.7013673782349,11.7010908126831,11.7008152008057,11.7005386352539,11.7002620697021,11.6999864578247,11.6997098922729,11.6994333267212,11.6991577148438,11.698881149292,11.6986045837402,11.6983289718628,11.698052406311,11.7027835845947,11.7259893417358,11.7492866516113,11.7726774215698,11.7961616516113,11.8197393417358,11.8434114456177,11.8671789169312,11.8910417556763,11.9146537780762,11.9224843978882,11.9303255081177,11.9381761550903,11.9516582489014,12.0128536224365,12.0746784210205,12.1371440887451,12.2002582550049,12.2640333175659,12.3284664154053,12.3935699462891,12.4593648910522,12.5258617401123,12.593071937561,12.6610078811646,12.7296800613403,12.7991018295288,12.8692855834961,12.9402418136597,13.0119876861572,13.0845336914062,13.1578941345215,13.2320804595947,13.3071088790894,13.5519552230835,13.5569458007812,13.5619401931763,13.5669384002686,13.5719404220581,13.5769462585449,13.581955909729,13.586968421936,13.5919857025146,13.5970058441162,13.602029800415,13.6070575714111,13.6120891571045,13.6171245574951,13.622163772583,13.6272058486938,13.6322526931763,13.6373023986816,13.6423568725586,13.6474142074585,13.65247631073,13.6575412750244,13.6626100540161,13.6676826477051,13.6727590560913,13.6778402328491,13.6829242706299,13.6880121231079,13.6931028366089,13.6981983184814,13.7032976150513,13.7084007263184,13.7135076522827,13.7186183929443,13.7237329483032,13.7288513183594,13.7339725494385,13.7390985488892,13.7442283630371,13.7493619918823,13.7544994354248,13.7596406936646,13.7647857666016,13.7699346542358,13.7750873565674,13.7802438735962,13.7854042053223,13.7905693054199,13.7957372665405,13.8009090423584,13.8060855865479,13.8112649917603,13.8164491653442,13.8216361999512,13.8268280029297,13.8320236206055,13.8372220993042,13.8424253463745,13.8476333618164,13.8528442382812,13.8580589294434,13.8632783889771,13.8685007095337,13.8737277984619,13.8789587020874,13.8841934204102,13.8894319534302,13.8946743011475,13.8999214172363,13.9051713943481,13.9104261398315,13.9156847000122,13.9209470748901,13.9262132644653,13.9314842224121,13.9367580413818,13.9420366287231,13.9473190307617,13.9526052474976,13.9578952789307,13.9631900787354,13.9684886932373,13.9737911224365,13.979097366333,13.9844083786011,13.9897222518921,13.9950408935547,14.0003643035889,14.005690574646,14.0110216140747,14.0163564682007,14.0216951370239,14.0270376205444,14.0323848724365,14.0377359390259,14.0430908203125,14.0484504699707,14.0538139343262,14.0591812133789,14.0645532608032,14.0699281692505,14.0753078460693,14.0806922912598,14.0860805511475,14.0914726257324,14.0968685150146,14.1022691726685,14.1076736450195,14.1130819320679,14.1184949874878,14.123911857605,14.1293334960938,14.1347579956055,14.1401882171631,14.1456212997437,14.1510591506958,14.1565008163452,14.1619472503662,14.1673974990845,14.1728525161743,14.1783113479614,14.1837739944458,14.1892414093018,14.194712638855,14.2001886367798,14.2056684494019,14.2111520767212,14.2166404724121,14.2221336364746,14.2276306152344,14.2811269760132,14.3406372070312,14.4006452560425,14.4611577987671,14.522180557251,14.5837202072144,14.6457843780518,14.7083787918091,14.7715110778809,14.835186958313,14.8994150161743,14.9642009735107,15.0295524597168,15.0954780578613,15.1619844436646,15.229079246521,15.2967700958252,15.365065574646,15.4339742660522,15.5035028457642,15.5736618041992,15.6444578170776,15.7159004211426,15.7879991531372,15.8607616424561,15.9341983795166,16.0083179473877,16.4985790252686,16.5077514648438,16.5509834289551,16.7239112854004,16.9004917144775,17.0809211730957,17.2552719116211,17.4019870758057,17.5512180328369,17.7232627868652,17.9120101928711,18.1063365936279,18.3631610870361,18.6739940643311,18.8942527770996,19.1197700500488,0,0,0,0,0,0,0,0,0,0,0,0,0,0,0,0,0,0,0,0,0,0,0,0,0,0,0,0,0,0,0,0,0,0,0,0,0,0,0,0,0,0,0,0,0,0,0,0,0,0,0,0,0,0,0,0,0,0,0,0,0,0,0,0,0,0,0,0,0,0,0,0,0,0,0,0,0,0,0,0,0,0,0,0,0,0,0,0,0,0,0,0
11.7129669189453,11.7126903533936,11.7124137878418,11.7121362686157,11.711859703064,11.7115831375122,11.7113065719604,11.7110290527344,11.7107524871826,11.7104759216309,11.7101993560791,11.7099227905273,11.7096452713013,11.7093687057495,11.7090921401978,11.708815574646,11.7085390090942,11.7082624435425,11.7079858779907,11.707709312439,11.7074317932129,11.7071552276611,11.7068786621094,11.7066020965576,11.7063255310059,11.7060489654541,11.7057723999023,11.7054958343506,11.7052192687988,11.7049427032471,11.7046670913696,11.7043905258179,11.7041139602661,11.7038373947144,11.7035608291626,11.7032842636108,11.7030076980591,11.7027311325073,11.7024555206299,11.7021789550781,11.7019023895264,11.7016258239746,11.7013502120972,11.7010736465454,11.7007970809937,11.7005205154419,11.7002449035645,11.6999683380127,11.6996917724609,11.6994161605835,11.6991395950317,11.6988639831543,11.6985874176025,11.6983108520508,11.6980352401733,11.7030296325684,11.7262363433838,11.7495355606079,11.7729272842407,11.7964115142822,11.8199911117554,11.8436641693115,11.8674325942993,11.8912963867188,11.9038171768188,11.9116334915161,11.9194602966309,11.9272966384888,11.951789855957,12.0129861831665,12.0748128890991,12.137279510498,12.2003955841064,12.2641716003418,12.3285961151123,12.3937005996704,12.4594964981079,12.5259952545166,12.593207359314,12.6611442565918,12.7298183441162,12.7992420196533,12.8694267272949,12.9403848648071,13.012131690979,13.0846796035767,13.1580410003662,13.2322301864624,13.3072595596313,13.511302947998,13.516263961792,13.5212287902832,13.5261964797974,13.5311689376831,13.5361442565918,13.5411233901978,13.546106338501,13.5510931015015,13.5560836791992,13.5610771179199,13.5660743713379,13.5710763931274,13.5760812759399,13.5810899734497,13.5861015319824,13.5911178588867,13.5961380004883,13.6011610031128,13.6061887741089,13.6112194061279,13.6162538528442,13.6212921142578,13.6263341903687,13.6313800811768,13.6364297866821,13.6414833068848,13.6465406417847,13.6516008377075,13.656665802002,13.6617336273193,13.6668062210083,13.6718816757202,13.6769618988037,13.6820449829102,13.6871318817139,13.6922225952148,13.6973180770874,13.7024164199829,13.7075185775757,13.7126245498657,13.7177352905273,13.7228488922119,13.7279663085938,13.7330875396729,13.7382125854492,13.7433414459229,13.7484741210938,13.7536115646362,13.7587518692017,13.7638959884644,13.7690448760986,13.7741966247559,13.7793531417847,13.7845125198364,13.7896757125854,13.7948436737061,13.8000154495239,13.8051900863647,13.8103694915771,13.8155527114868,13.8207397460938,13.8259305953979,13.8311252593994,13.8363237380981,13.8415260314941,13.8467330932617,13.8519430160522,13.8571577072144,13.8623762130737,13.8675975799561,13.8728246688843,13.8780546188354,13.8832883834839,13.8885259628296,13.8937683105469,13.8990144729614,13.9042644500732,13.9095182418823,13.9147758483887,13.9200372695923,13.9253034591675,13.9305725097656,13.9358463287354,13.9411239624023,13.9464054107666,13.9516916275024,13.9569816589355,13.9622745513916,13.9675731658936,13.9728746414185,13.9781799316406,13.9834899902344,13.9888038635254,13.9941215515137,13.9994440078735,14.0047693252563,14.0100994110107,14.0154342651367,14.0207719802856,14.0261144638062,14.0314607620239,14.036810874939,14.0421657562256,14.0475244522095,14.0528869628906,14.058253288269,14.063624382019,14.0689992904663,14.0743780136108,14.079761505127,14.0851488113403,14.090539932251,14.0959358215332,14.1013355255127,14.1067390441895,14.1121473312378,14.1175594329834,14.1229753494263,14.1283960342407,14.1338205337524,14.1392498016357,14.144681930542,14.1501197814941,14.1555604934692,14.1638784408569,14.1730833053589,14.182300567627,14.1915292739868,14.2007703781128,14.2183628082275,14.2519226074219,14.3080549240112,14.367790222168,14.4280261993408,14.4887685775757,14.5500259399414,14.6118030548096,14.6741065979004,14.7369441986084,14.8003215789795,14.8642473220825,14.9287271499634,14.9937686920166,15.0593795776367,15.1255674362183,15.1923398971558,15.2597045898438,15.3276681900024,15.3962411880493,15.4654293060303,15.5352430343628,15.6056900024414,15.6767778396606,15.748517036438,15.820915222168,15.8939828872681,15.9677286148071,16.5385971069336,16.5478134155273,16.5667705535889,16.7400321960449,16.9169540405273,17.0977153778076,17.2781467437744,17.4252529144287,17.5748844146729,17.7389068603516,17.9279899597168,18.122407913208,18.3718013763428,18.6922264099121,18.9148464202881,19.1408576965332,19.3723564147949,0,0,0,0,0,0,0,0,0,0,0,0,0,0,0,0,0,0,0,0,0,0,0,0,0,0,0,0,0,0,0,0,0,0,0,0,0,0,0,0,0,0,0,0,0,0,0,0,0,0,0,0,0,0,0,0,0,0,0,0,0,0,0,0,0,0,0,0,0,0,0,0,0,0,0,0,0,0,0,0,0,0,0,0,0,0,0,0,0,0
11.7129497528076,11.7126731872559,11.7123956680298,11.712119102478,11.7118425369263,11.7115650177002,11.7112884521484,11.7110118865967,11.7107353210449,11.7104587554932,11.7101812362671,11.7099046707153,11.7096281051636,11.7093515396118,11.7090749740601,11.7087984085083,11.7085208892822,11.7082443237305,11.7079677581787,11.707691192627,11.7074146270752,11.7071380615234,11.7068614959717,11.7065849304199,11.7063083648682,11.7060317993164,11.7057552337646,11.7054786682129,11.7052021026611,11.7049255371094,11.7046489715576,11.7043724060059,11.7040958404541,11.7038192749023,11.7035436630249,11.7032670974731,11.7029905319214,11.7027139663696,11.7024374008179,11.7021608352661,11.7018852233887,11.7016086578369,11.7013320922852,11.7010555267334,11.700779914856,11.7005033493042,11.7002267837524,11.699951171875,11.6996746063232,11.6993980407715,11.699122428894,11.6988458633423,11.6985692977905,11.6982936859131,11.6980171203613,11.7032766342163,11.7264842987061,11.7497835159302,11.7731761932373,11.7966623306274,11.8202419281006,11.8439168930054,11.8676853179932,11.8852090835571,11.8930006027222,11.9008026123047,11.9086151123047,11.9164371490479,11.9519214630127,12.0131196975708,12.0749473571777,12.137414932251,12.200532913208,12.2642993927002,12.328724861145,12.3938312530518,12.4596290588379,12.5261287689209,12.5933418273926,12.661280632019,12.7299566268921,12.7993812561035,12.8695678710938,12.9405279159546,13.0122756958008,13.0848255157471,13.1581878662109,13.2323789596558,13.3074102401733,13.4708938598633,13.4758253097534,13.4807596206665,13.4856986999512,13.4906406402588,13.4955863952637,13.5005359649658,13.5054893493652,13.5104455947876,13.5154066085815,13.5203704833984,13.5253381729126,13.530309677124,13.5352840423584,13.5402631759644,13.5452451705933,13.5502309799194,13.5552206039429,13.5602140426636,13.5652103424072,13.5702114105225,13.5752153396606,13.5802240371704,13.5852355957031,13.5902509689331,13.5952701568604,13.6002931594849,13.6053190231323,13.6103496551514,13.6153841018677,13.6204214096069,13.6254625320435,13.6305084228516,13.6355571746826,13.6406097412109,13.6456661224365,13.6507263183594,13.6557903289795,13.6608581542969,13.6659288406372,13.6710042953491,13.6760835647583,13.6811666488647,13.6862525939941,13.6913433074951,13.6964378356934,13.7015352249146,13.706636428833,13.711742401123,13.716851234436,13.7219648361206,13.7270812988281,13.7322025299072,13.7373266220093,13.7424554824829,13.7475872039795,13.7527236938477,13.7578630447388,13.7630071640015,13.7681550979614,13.7733058929443,13.7784614562988,13.7836208343506,13.7887840270996,13.7939500808716,13.7991209030151,13.804295539856,13.809473991394,13.8146572113037,13.8198432922363,13.8250331878662,13.8302268981934,13.8354253768921,13.8406267166138,13.845832824707,13.8510427474976,13.8562564849854,13.8614740371704,13.8666954040527,13.8719205856323,13.8771505355835,13.8823833465576,13.8876209259033,13.8928623199463,13.8981075286865,13.903356552124,13.9086093902588,13.9138669967651,13.9191274642944,13.9243927001953,13.9296617507935,13.9349346160889,13.9402122497559,13.9454927444458,13.9507780075073,13.9560670852661,13.9613599777222,13.9666566848755,13.9719581604004,13.9772634506226,13.982572555542,13.9878854751587,13.993203163147,13.9985237121582,14.003849029541,14.0091781616211,14.0145120620728,14.0198497772217,14.0251913070679,14.0305366516113,14.0358858108521,14.0412397384644,14.0465974807739,14.0519599914551,14.0573253631592,14.0626964569092,14.0680704116821,14.0734481811523,14.0788307189941,14.086012840271,14.0951175689697,14.1042327880859,14.1133613586426,14.1225004196167,14.1316518783569,14.140814781189,14.1499900817871,14.1591777801514,14.1683759689331,14.1775875091553,14.1868104934692,14.2163228988647,14.2498731613159,14.2835807800293,14.3350849151611,14.3950462341309,14.4555110931396,14.5164861679077,14.5779781341553,14.6399936676025,14.7025384902954,14.7656202316284,14.8292455673218,14.8934211730957,14.9581546783447,15.0234537124634,15.0893259048462,15.1557779312134,15.2228174209595,15.2904529571533,15.3586921691895,15.4275426864624,15.4970140457153,15.5671129226685,15.6378498077393,15.7092323303223,15.7812690734863,15.8539695739746,15.9273433685303,16.0013999938965,16.5880699157715,16.5973415374756,16.7561817169189,16.9334487915039,17.1145458221436,17.2996101379395,17.4485816955566,17.5986156463623,17.7545776367188,17.9439964294434,18.1385059356689,18.3804512023926,18.7011795043945,18.9354839324951,19.1619911193848,19.393985748291,0,0,0,0,0,0,0,0,0,0,0,0,0,0,0,0,0,0,0,0,0,0,0,0,0,0,0,0,0,0,0,0,0,0,0,0,0,0,0,0,0,0,0,0,0,0,0,0,0,0,0,0,0,0,0,0,0,0,0,0,0,0,0,0,0,0,0,0,0,0,0,0,0,0,0,0,0,0,0,0,0,0,0,0,0,0,0,0,0
11.7129325866699,11.7126550674438,11.7123785018921,11.7121019363403,11.7118244171143,11.7115478515625,11.7112712860107,11.710994720459,11.7107172012329,11.7104406356812,11.7101640701294,11.7098875045776,11.7096109390259,11.7093334197998,11.709056854248,11.7087802886963,11.7085037231445,11.7082271575928,11.707950592041,11.7076740264893,11.7073974609375,11.7071208953857,11.706844329834,11.7065677642822,11.7062902450562,11.7060146331787,11.705738067627,11.7054615020752,11.7051849365234,11.7049083709717,11.7046318054199,11.7043552398682,11.7040786743164,11.7038021087646,11.7035255432129,11.7032489776611,11.7029724121094,11.7026968002319,11.7024202346802,11.7021436691284,11.7018671035767,11.7015905380249,11.7013149261475,11.7010383605957,11.7007617950439,11.7004861831665,11.7002096176147,11.699933052063,11.6996574401855,11.6993808746338,11.699104309082,11.6988286972046,11.6985521316528,11.6982755661011,11.6979999542236,11.7035226821899,11.726731300354,11.7500324249268,11.7734260559082,11.7969131469727,11.8204936981201,11.8441686630249,11.8666582107544,11.8744258880615,11.8822031021118,11.8899908065796,11.8977890014648,11.9055976867676,11.9520530700684,12.0132522583008,12.0750818252563,12.1375513076782,12.2006702423096,12.2644281387329,12.3288545608521,12.3939619064331,12.4597616195679,12.5262622833252,12.5934772491455,12.6614170074463,12.730094909668,12.7995204925537,12.8697090148926,12.9406700134277,13.0124197006226,13.0849704742432,13.15833568573,13.2325277328491,13.3075609207153,13.4307250976562,13.4356279373169,13.4405326843262,13.445442199707,13.4503545761108,13.4552717208862,13.4601917266846,13.4651145935059,13.4700422286987,13.4749727249146,13.4799070358276,13.484845161438,13.4897861480713,13.4947319030762,13.499680519104,13.5046329498291,13.5095891952515,13.5145492553711,13.5195121765137,13.5244789123535,13.5294494628906,13.534423828125,13.5394020080566,13.5443840026855,13.5493688583374,13.5543584823608,13.5593509674072,13.5643472671509,13.5693473815918,13.5743503570557,13.5793581008911,13.5843687057495,13.5893840789795,13.5944023132324,13.5994243621826,13.6044502258301,13.6094799041748,13.6145133972168,13.6195507049561,13.6245918273926,13.6296358108521,13.6346845626831,13.6397361755371,13.6447925567627,13.6498517990112,13.654914855957,13.6599817276001,13.6650524139404,13.6701278686523,13.6752052307129,13.680287361145,13.6853733062744,13.6904630661011,13.695556640625,13.7006540298462,13.7057552337646,13.7108602523804,13.715968132019,13.7210807800293,13.7261972427368,13.7313175201416,13.7364416122437,13.7415685653687,13.7467002868652,13.7518358230591,13.7569751739502,13.7621183395386,13.7672643661499,13.7724161148071,13.7775707244873,13.7827291488647,13.7878913879395,13.7930574417114,13.7982273101807,13.8034009933472,13.8085794448853,13.8137607574463,13.8189468383789,13.8241357803345,13.8293294906616,13.834527015686,13.8397283554077,13.8449335098267,13.8501424789429,13.8553552627563,13.8605718612671,13.8657932281494,13.8710174560547,13.8762464523315,13.8814792633057,13.8867158889771,13.8919563293457,13.8972005844116,13.9024496078491,13.9077014923096,13.9129581451416,13.9182186126709,13.9234828948975,13.9287509918213,13.9340229034424,13.9392995834351,13.944580078125,13.9498643875122,13.9551525115967,13.9604454040527,13.9657411575317,13.9710416793823,13.9763460159302,13.9816541671753,13.986967086792,13.992283821106,13.9976043701172,14.0029287338257,14.0089998245239,14.0180044174194,14.0270204544067,14.0360488891602,14.0450887680054,14.0541400909424,14.0632028579712,14.0722770690918,14.0813636779785,14.090461730957,14.0995721817017,14.1086940765381,14.1178274154663,14.1269721984863,14.1361293792725,14.1452989578247,14.1544799804688,14.1636724472046,14.1809005737305,14.214282989502,14.24782371521,14.2815217971802,14.3153810501099,14.3622159957886,14.4224052429199,14.4831008911133,14.5443096160889,14.6060380935669,14.6682929992676,14.7310800552368,14.7944078445435,14.8582820892334,14.9227094650269,14.987699508667,15.0532569885254,15.1193904876709,15.1861085891724,15.2534170150757,15.321325302124,15.3898410797119,15.4589719772339,15.5287275314331,15.5991144180298,15.6701431274414,15.7418212890625,15.8141574859619,15.8871631622314,15.9608449935913,16.6285247802734,16.6378402709961,16.7723655700684,16.9499759674072,17.1314067840576,17.316837310791,17.4719715118408,17.6224117279053,17.775463104248,17.960033416748,18.154634475708,18.3891086578369,18.7101421356201,18.9561653137207,19.1831722259521,19.4156799316406,0,0,0,0,0,0,0,0,0,0,0,0,0,0,0,0,0,0,0,0,0,0,0,0,0,0,0,0,0,0,0,0,0,0,0,0,0,0,0,0,0,0,0,0,0,0,0,0,0,0,0,0,0,0,0,0,0,0,0,0,0,0,0,0,0,0,0,0,0,0,0,0,0,0,0,0,0,0,0,0,0,0,0,0,0,0,0,0
11.7129144668579,11.7126379013062,11.7123603820801,11.7120838165283,11.7118072509766,11.7115306854248,11.7112531661987,11.710976600647,11.7107000350952,11.7104234695435,11.7101459503174,11.7098693847656,11.7095928192139,11.7093162536621,11.7090396881104,11.7087631225586,11.7084865570068,11.7082090377808,11.707932472229,11.7076559066772,11.7073793411255,11.7071027755737,11.706826210022,11.7065496444702,11.7062730789185,11.7059965133667,11.7057199478149,11.7054433822632,11.7051668167114,11.7048902511597,11.7046136856079,11.7043371200562,11.7040605545044,11.703784942627,11.7035083770752,11.7032318115234,11.7029552459717,11.7026786804199,11.7024021148682,11.7021265029907,11.701849937439,11.7015733718872,11.7012968063354,11.701021194458,11.7007446289062,11.7004680633545,11.7001914978027,11.6999158859253,11.6996393203735,11.6993627548218,11.6990871429443,11.6988105773926,11.6985349655151,11.6982583999634,11.6979818344116,11.7037696838379,11.7269792556763,11.750280380249,11.7736749649048,11.7971630096436,11.8207454681396,11.8444213867188,11.8559083938599,11.8636617660522,11.8714256286621,11.8791990280151,11.8869829177856,11.8947772979736,11.952184677124,12.0133857727051,12.075216293335,12.1376867294312,12.2007970809937,12.2645559310913,12.3289842605591,12.3940935134888,12.4598932266235,12.5263957977295,12.5936126708984,12.6615543365479,12.7302322387695,12.7996606826782,12.8698492050171,12.9408130645752,13.0125637054443,13.0851163864136,13.1584825515747,13.2326765060425,13.3077116012573,13.390796661377,13.3956699371338,13.4005460739136,13.4054260253906,13.4103088378906,13.4151964187622,13.4200868606567,13.4249811172485,13.4298791885376,13.4347801208496,13.4396858215332,13.4445943832397,13.4495058059692,13.4544219970703,13.4593410491943,13.4642639160156,13.4691905975342,13.4741201400757,13.4790544509888,13.4839916229248,13.4889326095581,13.4938774108887,13.4988250732422,13.503776550293,13.5087327957153,13.5136919021606,13.5186548233032,13.5236206054688,13.5285911560059,13.5335645675659,13.5385417938232,13.5435228347778,13.5485076904297,13.5534954071045,13.5584878921509,13.5634832382202,13.5684823989868,13.5734853744507,13.5784921646118,13.5835027694702,13.5885171890259,13.5935354232788,13.5985565185547,13.6035823822021,13.6086111068726,13.6136436462402,13.6186800003052,13.6237201690674,13.6287641525269,13.6338119506836,13.6388635635376,13.6439180374146,13.6489772796631,13.6540403366089,13.6591062545776,13.6641759872437,13.6692504882812,13.6743278503418,13.6794090270996,13.684494972229,13.6895837783813,13.694676399231,13.6997728347778,13.704873085022,13.7099771499634,13.7150850296021,13.7201976776123,13.7253131866455,13.730432510376,13.7355556488037,13.7406826019287,13.745813369751,13.7509479522705,13.7560863494873,13.7612285614014,13.766375541687,13.7715253829956,13.7766790390015,13.7818374633789,13.7869987487793,13.7921648025513,13.7973337173462,13.8025074005127,13.8076839447021,13.8128652572632,13.8180503845215,13.8232393264771,13.8284320831299,13.83362865448,13.8388290405273,13.844033241272,13.8492422103882,13.8544540405273,13.8596706390381,13.8648900985718,13.8701143264771,13.8753423690796,13.8805742263794,13.8858108520508,13.8910503387451,13.896294593811,13.9015417098999,13.9067935943604,13.9120492935181,13.917308807373,13.9225730895996,13.9278402328491,13.9331121444702,13.9417304992676,13.9506492614746,13.9595794677734,13.9685211181641,13.9774732589722,13.9864377975464,13.9954137802124,14.0044012069702,14.0134000778198,14.0224103927612,14.0314331054688,14.0404663085938,14.0495119094849,14.0585689544678,14.0676374435425,14.0767183303833,14.0858097076416,14.094913482666,14.1040296554565,14.1131572723389,14.122296333313,14.1314477920532,14.1406106948853,14.1497850418091,14.1788711547852,14.2122440338135,14.245774269104,14.2794637680054,14.3133125305176,14.3473224639893,14.3894510269165,14.4498691558838,14.510796546936,14.5722408294678,14.6342067718506,14.696702003479,14.7597332000732,14.8233079910278,14.8874320983887,14.9521141052246,15.0173606872559,15.0831785202026,15.1495761871338,15.2165603637695,15.284140586853,15.3523235321045,15.4211168289185,15.4905300140381,15.5605707168579,15.6312475204468,15.7025699615479,15.7745456695557,15.8471841812134,15.9204950332642,15.9944868087769,16.6785373687744,16.7885780334473,16.9665336608887,17.1483020782471,17.3341007232666,17.4954261779785,17.6462707519531,17.7997398376465,17.9760990142822,18.1707897186279,18.3977737426758,18.7191123962402,18.9768943786621,19.2043991088867,19.4374256134033,0,0,0,0,0,0,0,0,0,0,0,0,0,0,0,0,0,0,0,0,0,0,0,0,0,0,0,0,0,0,0,0,0,0,0,0,0,0,0,0,0,0,0,0,0,0,0,0,0,0,0,0,0,0,0,0,0,0,0,0,0,0,0,0,0,0,0,0,0,0,0,0,0,0,0,0,0,0,0,0,0,0,0,0,0,0,0
11.7128973007202,11.7126197814941,11.7123432159424,11.7120666503906,11.7117891311646,11.7115125656128,11.711236000061,11.7109594345093,11.7106819152832,11.7104053497314,11.7101287841797,11.7098522186279,11.7095756530762,11.7092990875244,11.7090215682983,11.7087450027466,11.7084684371948,11.7081918716431,11.7079153060913,11.7076387405396,11.7073621749878,11.707085609436,11.7068090438843,11.7065324783325,11.7062559127808,11.705979347229,11.7057027816772,11.7054262161255,11.7051496505737,11.704873085022,11.7045965194702,11.7043199539185,11.7040433883667,11.7037668228149,11.7034902572632,11.7032136917114,11.702938079834,11.7026615142822,11.7023849487305,11.7021083831787,11.701831817627,11.7015562057495,11.7012796401978,11.701003074646,11.7007265090942,11.7004508972168,11.700174331665,11.6998977661133,11.6996221542358,11.6993455886841,11.6990690231323,11.6987934112549,11.6985168457031,11.6982412338257,11.6979646682739,11.7040157318115,11.7272262573242,11.7505292892456,11.7739248275757,11.7974138259888,11.8209962844849,11.8374490737915,11.845178604126,11.8529176712036,11.8606672286987,11.8684272766113,11.8761968612671,11.89173412323,11.9523162841797,12.0135183334351,12.0753507614136,12.1378221511841,12.2009239196777,12.2646837234497,12.3291139602661,12.3942241668701,12.4600257873535,12.5265302658081,12.5937471389771,12.6616907119751,12.7303705215454,12.7997999191284,12.8699903488159,12.9409551620483,13.0127077102661,13.085262298584,13.1586303710938,13.2328252792358,13.3078622817993,13.3511037826538,13.3559484481812,13.3607959747314,13.3656463623047,13.3705015182495,13.3753595352173,13.3802213668823,13.3850860595703,13.3899545669556,13.3948268890381,13.3997030258179,13.4045820236206,13.4094648361206,13.4143514633179,13.4192419052124,13.4241352081299,13.4290323257446,13.4339332580566,13.4388370513916,13.4437456130981,13.4486570358276,13.4535722732544,13.4584903717041,13.4634132385254,13.4683389663696,13.4732685089111,13.4782009124756,13.4831380844116,13.4880781173706,13.4930219650269,13.4979696273804,13.5029211044312,13.5078763961792,13.5128345489502,13.5177965164185,13.522762298584,13.5277318954468,13.5327043533325,13.5376815795898,13.5426616668701,13.5476455688477,13.5526332855225,13.5576248168945,13.5626201629639,13.5676183700562,13.57262134552,13.5776271820068,13.5826368331909,13.5876502990723,13.5926675796509,13.5976886749268,13.6027135848999,13.607741355896,13.6127738952637,13.6178092956543,13.6228494644165,13.6278924942017,13.6329393386841,13.6379899978638,13.6430444717407,13.6481027603149,13.6531648635864,13.6582307815552,13.6632995605469,13.6683731079102,13.6734504699707,13.6785306930542,13.6836156845093,13.6887035369873,13.6937961578369,13.6988916397095,13.7039918899536,13.7090950012207,13.7142028808594,13.719313621521,13.7244281768799,13.7295475006104,13.7346696853638,13.7397966384888,13.7449264526367,13.7500600814819,13.7551984786987,13.7603397369385,13.7654857635498,13.7706346511841,13.7757883071899,13.7809457778931,13.7861070632935,13.7912712097168,13.7964401245117,13.8016128540039,13.8067893981934,13.8119697570801,13.8171539306641,13.8223419189453,13.8275346755981,13.8327302932739,13.837929725647,13.8431339263916,13.8483419418335,13.8535528182983,13.8587684631348,13.8662824630737,13.8751049041748,13.8839378356934,13.892783164978,13.9016389846802,13.9105062484741,13.9193849563599,13.9282751083374,13.9371767044067,13.9460887908936,13.9550132751465,13.9639492034912,13.9728956222534,13.9818544387817,13.9908237457275,13.9998054504395,14.0087985992432,14.0178031921387,14.026819229126,14.0358476638794,14.0448865890503,14.0539379119873,14.0630006790161,14.0720748901367,14.0811614990234,14.0902585983276,14.0993690490723,14.1084899902344,14.1176233291626,14.1267681121826,14.1436347961426,14.1768417358398,14.210205078125,14.2437267303467,14.2774057388306,14.3112449645996,14.3452444076538,14.3794059753418,14.4167890548706,14.4774379730225,14.5385980606079,14.6002779006958,14.662483215332,14.7252216339111,14.7884979248047,14.8523216247559,14.9166975021362,14.9816341400146,15.0471391677856,15.1132192611694,15.1798820495605,15.2471351623535,15.3149881362915,15.3834466934204,15.4525203704834,15.522216796875,15.5925445556641,15.6635131835938,15.7351303100586,15.8074064254761,15.8803482055664,15.9539670944214,16.7194328308105,16.8048229217529,16.9831256866455,17.1652507781982,17.3513984680176,17.5189418792725,17.6701946258545,17.8240814208984,17.9921932220459,18.186975479126,18.4064483642578,18.7280921936035,18.9976673126221,19.2256736755371,19.4592189788818,0,0,0,0,0,0,0,0,0,0,0,0,0,0,0,0,0,0,0,0,0,0,0,0,0,0,0,0,0,0,0,0,0,0,0,0,0,0,0,0,0,0,0,0,0,0,0,0,0,0,0,0,0,0,0,0,0,0,0,0,0,0,0,0,0,0,0,0,0,0,0,0,0,0,0,0,0,0,0,0,0,0,0,0,0,0
11.7128791809082,11.7126026153564,11.7123260498047,11.7120485305786,11.7117719650269,11.7114953994751,11.7112188339233,11.7109413146973,11.7106647491455,11.7103881835938,11.710111618042,11.7098340988159,11.7095575332642,11.7092809677124,11.7090044021606,11.7087278366089,11.7084512710571,11.7081747055054,11.7078981399536,11.7076206207275,11.7073440551758,11.707067489624,11.7067909240723,11.7065143585205,11.7062377929688,11.705961227417,11.7056846618652,11.7054080963135,11.7051315307617,11.70485496521,11.7045783996582,11.7043027877808,11.704026222229,11.7037496566772,11.7034730911255,11.7031965255737,11.702919960022,11.7026433944702,11.7023677825928,11.702091217041,11.7018146514893,11.7015380859375,11.7012615203857,11.7009859085083,11.7007093429565,11.7004327774048,11.7001571655273,11.6998805999756,11.6996040344238,11.6993284225464,11.6990518569946,11.6987752914429,11.6984996795654,11.6982231140137,11.6979475021362,11.7042627334595,11.7274742126465,11.7507772445679,11.7741737365723,11.7976636886597,11.8190469741821,11.8267526626587,11.8344678878784,11.8421936035156,11.849928855896,11.8576745986938,11.8654298782349,11.8918647766113,11.9524478912354,12.013650894165,12.0754852294922,12.1379489898682,12.2010507583618,12.2648124694824,12.3292436599731,12.3943548202515,12.4601583480835,12.5266637802124,12.59388256073,12.6618270874023,12.7305088043213,12.7999391555786,12.8701314926147,12.9410982131958,13.0128517150879,13.0854082107544,13.1587772369385,13.2329750061035,13.3068342208862,13.3116464614868,13.3164615631104,13.3212804794312,13.3261032104492,13.3309288024902,13.3357582092285,13.3405904769897,13.3454275131226,13.3502674102783,13.355110168457,13.3599576950073,13.3648080825806,13.3696622848511,13.3745193481445,13.3793802261353,13.3842449188232,13.3891134262085,13.3939847946167,13.3988599777222,13.4037389755249,13.4086208343506,13.4135065078735,13.4183959960938,13.4232892990112,13.4281854629517,13.4330863952637,13.4379901885986,13.4428968429565,13.447808265686,13.4527225494385,13.4576406478882,13.4625625610352,13.4674873352051,13.4724159240723,13.4773483276367,13.4822845458984,13.4872245788574,13.4921674728394,13.4971141815186,13.502064704895,13.5070190429688,13.5119771957397,13.5169382095337,13.5219039916992,13.5268726348877,13.5318450927734,13.5368213653564,13.5418004989624,13.5467844009399,13.5517711639404,13.5567617416382,13.5617561340332,13.5667543411255,13.571756362915,13.5767621994019,13.5817708969116,13.586784362793,13.5918006896973,13.5968208312988,13.6018447875977,13.6068725585938,13.6119041442871,13.6169395446777,13.6219778060913,13.6270208358765,13.6320667266846,13.6371173858643,13.6421709060669,13.6472282409668,13.6522903442383,13.6573553085327,13.6624231338501,13.6674966812134,13.6725721359253,13.6776523590088,13.6827363967896,13.6878242492676,13.6929159164429,13.6980113983154,13.7031106948853,13.708212852478,13.7133197784424,13.718430519104,13.7235441207886,13.7286624908447,13.7337846755981,13.7389106750488,13.7440395355225,13.7491731643677,13.7543106079102,13.7594509124756,13.7645959854126,13.7697448730469,13.7748975753784,13.7800540924072,13.7852144241333,13.7916469573975,13.8003740310669,13.8091125488281,13.8178625106812,13.8266229629517,13.835394859314,13.8441781997681,13.8529720306396,13.861777305603,13.8705940246582,13.8794212341309,13.8882608413696,13.8971109390259,13.9059724807739,13.9148454666138,13.9237289428711,13.9326248168945,13.9415321350098,13.9504499435425,13.9593801498413,13.9683208465576,13.97727394104,13.9862375259399,13.995213508606,14.0041999816895,14.0131988525391,14.0222091674805,14.0312309265137,14.040265083313,14.0493097305298,14.0583667755127,14.0674352645874,14.0765151977539,14.0856075286865,14.0947103500366,14.1038265228271,14.1129531860352,14.1416158676147,14.1748132705688,14.2081670761108,14.2416791915894,14.2753486633301,14.3091773986816,14.3431673049927,14.3773193359375,14.4116344451904,14.4461135864258,14.5051116943359,14.5665073394775,14.6284246444702,14.6908702850342,14.753851890564,14.8173751831055,14.8814487457275,14.9460783004761,15.0112714767456,15.0770359039307,15.1433792114258,15.2103090286255,15.2778329849243,15.3459596633911,15.4146966934204,15.4840517044067,15.5540332794189,15.6246509552002,15.695912361145,15.7678270339966,15.8404035568237,15.9136514663696,16.7605304718018,16.8211002349854,16.9997501373291,17.1822338104248,17.3687305450439,17.5425224304199,17.6941833496094,17.8484916687012,18.0083141326904,18.2032165527344,18.4151287078857,18.7370796203613,19.0184860229492,0,0,0,0,0,0,0,0,0,0,0,0,0,0,0,0,0,0,0,0,0,0,0,0,0,0,0,0,0,0,0,0,0,0,0,0,0,0,0,0,0,0,0,0,0,0,0,0,0,0,0,0,0,0,0,0,0,0,0,0,0,0,0,0,0,0,0,0,0,0,0,0,0,0,0,0,0,0,0,0,0,0,0,0,0,0,0
11.7128620147705,11.7125844955444,11.7123079299927,11.7120313644409,11.7117547988892,11.7114772796631,11.7112007141113,11.7109241485596,11.7106475830078,11.7103700637817,11.71009349823,11.7098169326782,11.7095403671265,11.7092638015747,11.7089872360229,11.7087097167969,11.7084331512451,11.7081565856934,11.7078800201416,11.7076034545898,11.7073268890381,11.7070503234863,11.7067737579346,11.7064971923828,11.7062206268311,11.7059440612793,11.7056674957275,11.7053909301758,11.705114364624,11.7048377990723,11.7045612335205,11.7042846679688,11.704008102417,11.7037315368652,11.7034559249878,11.703179359436,11.7029027938843,11.7026262283325,11.7023496627808,11.702073097229,11.7017974853516,11.7015209197998,11.701244354248,11.7009677886963,11.7006921768188,11.7004156112671,11.7001390457153,11.6998634338379,11.6995868682861,11.6993103027344,11.6990346908569,11.6987581253052,11.6984815597534,11.698205947876,11.6979293823242,11.7045087814331,11.7277212142944,11.7510261535645,11.7744235992432,11.7979145050049,11.8083839416504,11.8160753250122,11.8237771987915,11.831488609314,11.8392095565796,11.8469409942627,11.8546829223633,11.8919944763184,11.952579498291,12.0137844085693,12.0756187438965,12.1380748748779,12.2011775970459,12.2649402618408,12.3293724060059,12.3944854736328,12.4602899551392,12.5267972946167,12.5940179824829,12.6619634628296,12.7306470870972,12.8000793457031,12.8702726364136,12.9412412643433,13.0129957199097,13.0855531692505,13.1589250564575,13.2331237792969,13.2676372528076,13.2724208831787,13.2772083282471,13.2819986343384,13.286792755127,13.2915897369385,13.2963905334473,13.3011951446533,13.3060035705566,13.3108148574829,13.3156290054321,13.3204479217529,13.3252687454224,13.3300943374634,13.3349237442017,13.3397560119629,13.3445911407471,13.3494310379028,13.3542737960815,13.3591194152832,13.3639698028564,13.3688230514526,13.3736801147461,13.3785409927368,13.3834047317505,13.3882722854614,13.3931427001953,13.3980178833008,13.4028959274292,13.4077768325806,13.4126625061035,13.4175510406494,13.4224433898926,13.427339553833,13.4322395324707,13.4371423721313,13.4420490264893,13.4469594955444,13.4518728256226,13.4567899703979,13.4617118835449,13.4666357040405,13.4715642929077,13.4764957427979,13.4814319610596,13.4863710403442,13.4913129806519,13.4962596893311,13.5012092590332,13.5061626434326,13.5111198425293,13.5160808563232,13.5210456848145,13.5260143280029,13.5309858322144,13.535961151123,13.540940284729,13.5459232330322,13.5509090423584,13.5558996200562,13.5608930587769,13.5658912658691,13.5708923339844,13.5758972167969,13.5809049606323,13.5859174728394,13.5909337997437,13.5959529876709,13.6009759902954,13.6060037612915,13.6110343933105,13.6160688400269,13.6211071014404,13.6261491775513,13.6311950683594,13.6362438201904,13.6412973403931,13.646354675293,13.6514148712158,13.6564798355103,13.6615476608276,13.6666193008423,13.6716957092285,13.6767749786377,13.6818580627441,13.6869449615479,13.6920356750488,13.6971302032471,13.7022285461426,13.7073307037354,13.7124366760254,13.717809677124,13.7264442443848,13.735089302063,13.743745803833,13.7524118423462,13.7610902786255,13.7697792053223,13.7784786224365,13.7871894836426,13.7959117889404,13.8046445846558,13.8133888244629,13.8221435546875,13.8309097290039,13.8396873474121,13.8484754562378,13.8572750091553,13.8660860061646,13.8749074935913,13.8837413787842,13.8925857543945,13.9014415740967,13.9103088378906,13.9191865921021,13.9280767440796,13.9369773864746,13.9458904266357,13.9548139572144,13.9637489318848,13.9726963043213,13.9816541671753,13.9906244277954,13.999605178833,14.0085983276367,14.0176019668579,14.0266180038452,14.0356454849243,14.0446844100952,14.0537357330322,14.062798500061,14.0718727111816,14.080958366394,14.0900554656982,14.1065645217896,14.1395978927612,14.1727857589722,14.206130027771,14.239631652832,14.2732915878296,14.307110786438,14.3410911560059,14.3752336502075,14.409538269043,14.4440069198608,14.4786415100098,14.5328912734985,14.5945234298706,14.6566791534424,14.7193670272827,14.7825937271118,14.8463649749756,14.9106903076172,14.9755744934082,15.0410261154175,15.1070518493652,15.1736602783203,15.2408590316772,15.3086547851562,15.3770570755005,15.4460735321045,15.5157117843628,15.5859804153442,15.656888961792,15.7284460067749,15.8006601333618,15.8735399246216,15.9470949172974,16.8374080657959,17.0164051055908,17.1992492675781,17.3860988616943,17.5661659240723,17.7182388305664,17.8729667663574,18.0304222106934,18.2197208404541,18.4238204956055,18.7460765838623,0,0,0,0,0,0,0,0,0,0,0,0,0,0,0,0,0,0,0,0,0,0,0,0,0,0,0,0,0,0,0,0,0,0,0,0,0,0,0,0,0,0,0,0,0,0,0,0,0,0,0,0,0,0,0,0,0,0,0,0,0,0,0,0,0,0,0,0,0,0,0,0,0,0,0,0,0,0,0,0,0,0,0,0,0,0,0
11.7128438949585,11.7125673294067,11.712290763855,11.7120132446289,11.7117366790771,11.7114601135254,11.7111835479736,11.7109060287476,11.7106294631958,11.710352897644,11.7100763320923,11.7097997665405,11.7095222473145,11.7092456817627,11.7089691162109,11.7086925506592,11.7084159851074,11.7081394195557,11.7078628540039,11.7075862884521,11.7073097229004,11.7070322036743,11.7067556381226,11.7064790725708,11.706202507019,11.7059259414673,11.7056493759155,11.7053728103638,11.7050971984863,11.7048206329346,11.7045440673828,11.7042675018311,11.7039909362793,11.7037143707275,11.7034378051758,11.703161239624,11.7028846740723,11.7026090621948,11.7023324966431,11.7020559310913,11.7017793655396,11.7015027999878,11.7012271881104,11.7009506225586,11.7006740570068,11.7003974914551,11.7001218795776,11.6998453140259,11.6995687484741,11.6992931365967,11.6990165710449,11.6987409591675,11.6984643936157,11.698187828064,11.6979122161865,11.7047557830811,11.7279691696167,11.7512741088867,11.7746734619141,11.7900724411011,11.797739982605,11.8054170608521,11.8131046295166,11.8208026885986,11.8285102844238,11.8362274169922,11.843955039978,11.8921251296997,11.9527111053467,12.0139169692993,12.0757455825806,12.1382007598877,12.20130443573,12.2650680541992,12.3295021057129,12.3946170806885,12.4604225158691,12.526930809021,12.5941524505615,12.6621007919312,12.730785369873,12.8002185821533,12.8704137802124,12.9413833618164,13.0131397247314,13.0856990814209,13.1590719223022,13.2239179611206,13.2286710739136,13.2334260940552,13.238184928894,13.2429475784302,13.2477130889893,13.2524824142456,13.2572555541992,13.2620315551758,13.2668113708496,13.2715940475464,13.2763805389404,13.2811698913574,13.285964012146,13.2907609939575,13.295560836792,13.3003644943237,13.3051719665527,13.309983253479,13.3147974014282,13.3196144104004,13.3244361877441,13.3292608261108,13.3340883255005,13.3389205932617,13.3437557220459,13.348593711853,13.3534364700317,13.3582820892334,13.3631315231323,13.3679838180542,13.3728408813477,13.3777008056641,13.3825635910034,13.3874311447144,13.3923006057739,13.3971748352051,13.4020528793335,13.4069337844849,13.4118185043335,13.4167060852051,13.4215974807739,13.4264936447144,13.4313917160034,13.4362945556641,13.4412002563477,13.4461107254028,13.451024055481,13.455940246582,13.4608612060547,13.4657850265503,13.4707126617432,13.475643157959,13.4805784225464,13.4855175018311,13.4904594421387,13.4954042434692,13.5003538131714,13.5053071975708,13.5102634429932,13.5152235031128,13.5201873779297,13.5251550674438,13.5301265716553,13.5351009368896,13.5400791168213,13.5450620651245,13.5500478744507,13.5550365447998,13.5600299835205,13.5650272369385,13.5700273513794,13.5750312805176,13.5800399780273,13.5850505828857,13.5900659561157,13.595085144043,13.6001081466675,13.6051340103149,13.610164642334,13.6151990890503,13.6202363967896,13.6252775192261,13.6303224563599,13.6353712081909,13.6404237747192,13.6454801559448,13.653302192688,13.6618556976318,13.6704196929932,13.678994178772,13.6875791549683,13.6961755752563,13.7047824859619,13.7134008407593,13.7220296859741,13.7306690216064,13.7393198013306,13.7479810714722,13.7566528320312,13.7653360366821,13.7740306854248,13.782735824585,13.7914524078369,13.8001794815063,13.8089179992676,13.8176670074463,13.8264274597168,13.8351993560791,13.8439817428589,13.8527755737305,13.8615808486938,13.8703966140747,13.8792247772217,13.8880634307861,13.8969135284424,13.9057741165161,13.914647102356,13.9235315322876,13.9324264526367,13.9413328170776,13.9502506256104,13.9591808319092,13.9681215286255,13.9770736694336,13.9860372543335,13.9950132369995,14.003999710083,14.0129985809326,14.0220079421997,14.0310297012329,14.0400629043579,14.0491075515747,14.0581645965576,14.067232131958,14.0763120651245,14.1045560836792,14.1375799179077,14.1707582473755,14.2040929794312,14.237585067749,14.2712354660034,14.3050451278687,14.3390159606934,14.3731479644775,14.4074430465698,14.4419012069702,14.476526260376,14.5113162994385,14.5607786178589,14.6226463317871,14.6850433349609,14.747974395752,14.8114471435547,14.8754692077637,14.9400463104248,15.0051870346069,15.0708990097046,15.1371879577637,15.2040634155273,15.2715311050415,15.3396015167236,15.4082813262939,15.477578163147,15.5475015640259,15.6180601119995,15.6892614364624,15.7611150741577,15.8336296081543,15.9068145751953,16.8537483215332,17.0330944061279,17.2162990570068,17.4034996032715,17.5898742675781,17.742359161377,17.8975105285645,18.05539894104,18.2362537384033,18.4373340606689,18.7550830841064,0,0,0,0,0,0,0,0,0,0,0,0,0,0,0,0,0,0,0,0,0,0,0,0,0,0,0,0,0,0,0,0,0,0,0,0,0,0,0,0,0,0,0,0,0,0,0,0,0,0,0,0,0,0,0,0,0,0,0,0,0,0,0,0,0,0,0,0,0,0,0,0,0,0,0,0,0,0,0,0,0,0,0,0,0,0
11.7128267288208,11.712550163269,11.712272644043,11.7119960784912,11.7117195129395,11.7114419937134,11.7111654281616,11.7108888626099,11.7106122970581,11.7103357315063,11.7100582122803,11.7097816467285,11.7095050811768,11.709228515625,11.7089519500732,11.7086753845215,11.7083978652954,11.7081212997437,11.7078447341919,11.7075681686401,11.7072916030884,11.7070150375366,11.7067384719849,11.7064619064331,11.7061853408813,11.7059087753296,11.7056322097778,11.7053556442261,11.7050790786743,11.7048025131226,11.7045259475708,11.704249382019,11.7039728164673,11.7036972045898,11.7034206390381,11.7031440734863,11.7028675079346,11.7025909423828,11.7023143768311,11.7020387649536,11.7017621994019,11.7014856338501,11.7012090682983,11.7009334564209,11.7006568908691,11.7003803253174,11.7001037597656,11.6998281478882,11.6995515823364,11.6992750167847,11.6989994049072,11.6987228393555,11.698447227478,11.6981706619263,11.6978940963745,11.7050018310547,11.7282161712646,11.7515230178833,11.7718172073364,11.7794609069824,11.7871150970459,11.7947788238525,11.8024520874023,11.8101358413696,11.8178291320801,11.825532913208,11.8332471847534,11.8922557830811,11.9528427124023,12.0140504837036,12.0758695602417,12.1383256912231,12.2014312744141,12.2651968002319,12.3296318054199,12.3947477340698,12.4605550765991,12.5270643234253,12.5942878723145,12.6622371673584,12.7309226989746,12.8003587722778,12.8705549240112,12.9415264129639,13.0132846832275,13.0858449935913,13.1592197418213,13.1852073669434,13.1899318695068,13.1946592330933,13.199390411377,13.2041254043579,13.2088632583618,13.213604927063,13.2183494567871,13.2230978012085,13.2278490066528,13.2326040267944,13.2373628616333,13.2421245574951,13.2468891143799,13.2516584396362,13.2564306259155,13.2612056732178,13.2659845352173,13.2707672119141,13.2755527496338,13.2803421020508,13.285135269165,13.2899312973022,13.2947311401367,13.2995347976685,13.3043413162231,13.3091516494751,13.31396484375,13.3187818527222,13.3236026763916,13.328426361084,13.3332538604736,13.3380851745605,13.3429203033447,13.3477582931519,13.3525991439819,13.3574447631836,13.3622932434082,13.3671455383301,13.3720006942749,13.3768606185913,13.3817234039307,13.386589050293,13.3914594650269,13.3963327407837,13.4012098312378,13.4060897827148,13.4109735488892,13.4158611297607,13.4207525253296,13.4256467819214,13.4305458068848,13.4354467391968,13.4403524398804,13.4452619552612,13.450174331665,13.4550905227661,13.4600105285645,13.4649333953857,13.4698610305786,13.4747915267944,13.4797258377075,13.4846630096436,13.4896049499512,13.4945497512817,13.4994983673096,13.5044507980347,13.509407043457,13.5143661499023,13.5193290710449,13.5242967605591,13.5292673110962,13.5342407226562,13.5392189025879,13.5442008972168,13.5491857528687,13.5541744232178,13.5591669082642,13.5641632080078,13.5691633224487,13.5741662979126,13.5809354782104,13.5893983840942,13.5978717803955,13.6063556671143,13.6148500442505,13.6233549118042,13.6318702697754,13.6403970718384,13.6489343643188,13.6574821472168,13.6660404205322,13.6746091842651,13.6831893920898,13.691780090332,13.700382232666,13.7089939117432,13.7176170349121,13.7262516021729,13.7348966598511,13.7435522079468,13.7522192001343,13.7608966827393,13.7695846557617,13.7782850265503,13.786994934082,13.7957172393799,13.8044490814209,13.813193321228,13.8219480514526,13.830714225769,13.8394908905029,13.8482789993286,13.8570785522461,13.8658895492554,13.8747110366821,13.8835439682007,13.892388343811,13.9012432098389,13.9101104736328,13.9189882278442,13.9278783798218,13.9367790222168,13.9456911087036,13.9546146392822,13.9635496139526,13.9724960327148,13.9814538955688,13.990424156189,13.9994049072266,14.008397102356,14.0174016952515,14.0264167785645,14.0354442596436,14.0444831848145,14.0535335540771,14.0696878433228,14.1025485992432,14.1355628967285,14.1687316894531,14.2020568847656,14.2355394363403,14.2691802978516,14.3029804229736,14.3369407653809,14.3710632324219,14.4053478240967,14.4397964477539,14.4744110107422,14.5091915130615,14.5441389083862,14.5887718200684,14.65087890625,14.7135171890259,14.7766933441162,14.8404140472412,14.9046869277954,14.9695196151733,15.0349178314209,15.1008901596069,15.167444229126,15.2345876693726,15.3023281097412,15.3706731796265,15.4396314620972,15.5092124938965,15.5794219970703,15.6502714157104,15.7217674255371,15.7939195632935,15.8667373657227,15.9402294158936,17.0498161315918,17.2333831787109,17.4209461212158,17.6127223968506,17.766544342041,17.9221210479736,18.0804462432861,18.2528171539307,18.4539966583252,18.7640972137451,0,0,0,0,0,0,0,0,0,0,0,0,0,0,0,0,0,0,0,0,0,0,0,0,0,0,0,0,0,0,0,0,0,0,0,0,0,0,0,0,0,0,0,0,0,0,0,0,0,0,0,0,0,0,0,0,0,0,0,0,0,0,0,0,0,0,0,0,0,0,0,0,0,0,0,0,0,0,0,0,0,0,0,0,0
11.7128095626831,11.712532043457,11.7122554779053,11.7119789123535,11.7117013931274,11.7114248275757,11.7111482620239,11.7108716964722,11.7105941772461,11.7103176116943,11.7100410461426,11.7097644805908,11.7094879150391,11.709210395813,11.7089338302612,11.7086572647095,11.7083806991577,11.708104133606,11.7078275680542,11.7075510025024,11.7072744369507,11.7069978713989,11.7067213058472,11.7064447402954,11.7061681747437,11.7058916091919,11.7056150436401,11.7053384780884,11.7050619125366,11.7047853469849,11.7045087814331,11.7042322158813,11.7039556503296,11.7036790847778,11.7034025192261,11.7031259536743,11.7028503417969,11.7025737762451,11.7022972106934,11.7020206451416,11.7017440795898,11.7014684677124,11.7011919021606,11.7009153366089,11.7006387710571,11.7003631591797,11.7000865936279,11.6998100280762,11.6995344161987,11.699257850647,11.6989812850952,11.6987056732178,11.698429107666,11.6981534957886,11.6978769302368,11.7052488327026,11.7284641265869,11.7517719268799,11.7612390518188,11.7688684463501,11.7765092849731,11.784158706665,11.7918186187744,11.799488067627,11.807168006897,11.8148574829102,11.832407951355,11.8923854827881,11.952974319458,12.0141754150391,12.0759935379028,12.1384515762329,12.2015581130981,12.2653245925903,12.329761505127,12.3948783874512,12.4606866836548,12.5271978378296,12.5944232940674,12.6623735427856,12.7310609817505,12.800498008728,12.8706960678101,12.941668510437,13.0134286880493,13.0859909057617,13.1420297622681,13.1467227935791,13.1514196395874,13.156120300293,13.1608238220215,13.1655302047729,13.1702404022217,13.1749544143677,13.1796712875366,13.1843910217285,13.189115524292,13.1938428878784,13.1985731124878,13.2033071517944,13.208044052124,13.2127847671509,13.217529296875,13.2222766876221,13.2270278930664,13.2317819595337,13.2365398406982,13.2413015365601,13.2460660934448,13.2508335113525,13.2556056976318,13.2603807449341,13.2651586532593,13.2699403762817,13.2747259140015,13.2795143127441,13.2843065261841,13.2891025543213,13.2939014434814,13.2987041473389,13.3035106658936,13.3083200454712,13.3131332397461,13.3179492950439,13.3227701187134,13.3275928497314,13.3324193954468,13.3372497558594,13.3420839309692,13.3469219207764,13.3517627716064,13.3566074371338,13.3614549636841,13.3663063049316,13.3711614608765,13.3760204315186,13.3808822631836,13.3857479095459,13.3906173706055,13.395489692688,13.4003667831421,13.4052467346191,13.4101295471191,13.4150161743164,13.4199066162109,13.4248008728027,13.4296989440918,13.4345998764038,13.4395046234131,13.4444131851196,13.4493246078491,13.4542407989502,13.4591598510742,13.4640827178955,13.4690093994141,13.4739389419556,13.4788722991943,13.4838094711304,13.4887504577637,13.4936952590942,13.4986429214478,13.5035943984985,13.509331703186,13.5177049636841,13.5260896682739,13.5344839096069,13.5428886413574,13.5513048171997,13.5597305297852,13.5681667327881,13.5766134262085,13.5850706100464,13.5935392379761,13.6020174026489,13.6105060577393,13.6190061569214,13.627516746521,13.6360378265381,13.6445693969727,13.6531114578247,13.6616640090942,13.6702280044556,13.6788024902344,13.6873874664307,13.6959838867188,13.7045907974243,13.7132081985474,13.7218370437622,13.7304763793945,13.7391262054443,13.7477874755859,13.756459236145,13.7651424407959,13.7738361358643,13.7825412750244,13.7912578582764,13.7999839782715,13.8087224960327,13.8174715042114,13.8262319564819,13.8350028991699,13.8437852859497,13.8525791168213,13.8613843917847,13.8702001571655,13.8790273666382,13.8878660202026,13.8967161178589,13.9055767059326,13.9144487380981,13.9233331680298,13.9322280883789,13.9411344528198,13.9500522613525,13.9589815139771,13.9679222106934,13.9768733978271,13.9858369827271,13.9948129653931,14.0037994384766,14.0127973556519,14.0218067169189,14.0308284759521,14.0398616790771,14.0676898956299,14.1005411148071,14.1335458755493,14.1667060852051,14.2000217437744,14.2334938049316,14.2671251296997,14.3009157180786,14.3348665237427,14.3689785003662,14.4032535552979,14.4376926422119,14.4722967147827,14.5070667266846,14.5420045852661,14.5771112442017,14.6168737411499,14.6792211532593,14.7421026229858,14.8055248260498,14.8694953918457,14.9340200424194,14.9991083145142,15.0647668838501,15.1310014724731,15.1978216171265,15.2652349472046,15.3332481384277,15.4018707275391,15.4711103439331,15.5409755706787,15.6114740371704,15.6826152801514,15.7544078826904,15.8268604278564,15.8999834060669,17.0665721893311,17.2505016326904,17.4384384155273,17.6305809020996,17.7907962799072,17.9468002319336,18.1055641174316,18.2694091796875,18.4706916809082,18.7731189727783,0,0,0,0,0,0,0,0,0,0,0,0,0,0,0,0,0,0,0,0,0,0,0,0,0,0,0,0,0,0,0,0,0,0,0,0,0,0,0,0,0,0,0,0,0,0,0,0,0,0,0,0,0,0,0,0,0,0,0,0,0,0,0,0,0,0,0,0,0,0,0,0,0,0,0,0,0,0,0,0,0,0,0,0
11.7127914428711,11.7125148773193,11.7122373580933,11.7119607925415,11.7116842269897,11.711407661438,11.7111301422119,11.7108535766602,11.7105770111084,11.7103004455566,11.7100229263306,11.7097463607788,11.7094697952271,11.7091932296753,11.7089166641235,11.7086400985718,11.70836353302,11.7080869674683,11.7078094482422,11.7075328826904,11.7072563171387,11.7069797515869,11.7067031860352,11.7064266204834,11.7061500549316,11.7058734893799,11.7055969238281,11.7053203582764,11.7050437927246,11.7047672271729,11.7044906616211,11.7042150497437,11.7039384841919,11.7036619186401,11.7033853530884,11.7031087875366,11.7028322219849,11.7025556564331,11.7022800445557,11.7020034790039,11.7017269134521,11.7014503479004,11.7011737823486,11.7008981704712,11.7006216049194,11.7003450393677,11.7000694274902,11.6997928619385,11.6995162963867,11.6992406845093,11.6989641189575,11.6986875534058,11.6984119415283,11.6981353759766,11.6978597640991,11.7054948806763,11.7287111282349,11.7430725097656,11.7506790161133,11.7582960128784,11.7659215927124,11.7735576629639,11.7812042236328,11.7888603210449,11.7965259552002,11.8042020797729,11.832537651062,11.8925161361694,11.9531059265137,12.0142984390259,12.0761184692383,12.1385765075684,12.2016849517822,12.265453338623,12.329891204834,12.3950090408325,12.4608192443848,12.5273323059082,12.5945587158203,12.6625099182129,12.7311992645264,12.8006372451782,12.8708372116089,12.9418115615845,13.0135726928711,13.0861358642578,13.103796005249,13.1084623336792,13.1131315231323,13.1178045272827,13.1224803924561,13.1271600723267,13.1318426132202,13.136528968811,13.1412191390991,13.1459112167358,13.1506080627441,13.1553077697754,13.1600103378296,13.1647167205811,13.1694259643555,13.1741390228271,13.1788558959961,13.183575630188,13.1882991790771,13.1930255889893,13.1977548599243,13.202488899231,13.2072257995605,13.2119655609131,13.2167091369629,13.22145652771,13.22620677948,13.2309608459473,13.2357177734375,13.240478515625,13.2452421188354,13.2500095367432,13.2547807693481,13.2595548629761,13.2643327713013,13.2691135406494,13.2738990783691,13.2786865234375,13.2834787368774,13.2882738113403,13.2930717468262,13.2978744506836,13.302680015564,13.3074884414673,13.3123006820679,13.3171167373657,13.3219366073608,13.3267593383789,13.3315858840942,13.3364152908325,13.3412485122681,13.3460855484009,13.3509254455566,13.355770111084,13.3606176376343,13.3654680252075,13.370322227478,13.3751802444458,13.3800420761108,13.3849067687988,13.3897762298584,13.3946475982666,13.3995237350464,13.4044027328491,13.4092855453491,13.4141721725464,13.4190616607666,13.4239549636841,13.4288520812988,13.4337530136108,13.4386568069458,13.4467649459839,13.4550619125366,13.4633684158325,13.4716854095459,13.4800119400024,13.4883489608765,13.4966974258423,13.5050554275513,13.5134239196777,13.5218029022217,13.5301914215088,13.5385913848877,13.5470018386841,13.5554218292236,13.563853263855,13.5722942352295,13.5807466506958,13.5892095565796,13.5976819992065,13.6061658859253,13.6146602630615,13.6231651306152,13.6316804885864,13.6402063369751,13.6487436294556,13.6572914123535,13.6658496856689,13.6744184494019,13.6829977035522,13.6915884017944,13.7001895904541,13.7088022232056,13.7174243927002,13.7260589599609,13.7347030639648,13.7433586120605,13.752025604248,13.760703086853,13.7693910598755,13.7780904769897,13.7868003845215,13.795521736145,13.8042545318604,13.8129978179932,13.8217525482178,13.8305187225342,13.8392953872681,13.8480825424194,13.8568820953369,13.8656921386719,13.8745136260986,13.8833465576172,13.8921909332275,13.9010457992554,13.909912109375,13.9187898635864,13.927680015564,13.9365797042847,13.9454917907715,13.9544153213501,13.9633502960205,13.9722967147827,13.9812545776367,13.9902238845825,13.9992036819458,14.0081968307495,14.0172004699707,14.0330038070679,14.0656929016113,14.0985345840454,14.1315298080444,14.164680480957,14.1979866027832,14.2314491271973,14.2650709152222,14.2988510131836,14.3327922821045,14.3668947219849,14.401159286499,14.4355888366699,14.4701824188232,14.5049428939819,14.539870262146,14.5749664306641,14.6102323532104,14.6456689834595,14.7076721191406,14.7707986831665,14.8344678878784,14.8986892700195,14.9634695053101,15.0288152694702,15.0947332382202,15.1612329483032,15.2283210754395,15.2960052490234,15.3642950057983,15.4331960678101,15.5027179718018,15.5728693008423,15.6436586380005,15.7150936126709,15.787184715271,15.8599405288696,17.0833587646484,17.2676525115967,17.4559669494629,17.6484756469727,17.815113067627,17.9715461730957,18.1307506561279,18.2928009033203,18.4874153137207,18.7821502685547,0,0,0,0,0,0,0,0,0,0,0,0,0,0,0,0,0,0,0,0,0,0,0,0,0,0,0,0,0,0,0,0,0,0,0,0,0,0,0,0,0,0,0,0,0,0,0,0,0,0,0,0,0,0,0,0,0,0,0,0,0,0,0,0,0,0,0,0,0,0,0,0,0,0,0,0,0,0,0,0,0,0,0
11.7127742767334,11.7124967575073,11.7122201919556,11.7119436264038,11.7116661071777,11.711389541626,11.7111129760742,11.7108364105225,11.7105588912964,11.7102823257446,11.7100057601929,11.7097291946411,11.7094526290894,11.7091760635376,11.7088985443115,11.7086219787598,11.708345413208,11.7080688476562,11.7077922821045,11.7075157165527,11.707239151001,11.7069625854492,11.7066860198975,11.7064094543457,11.7061328887939,11.7058563232422,11.7055797576904,11.7053031921387,11.7050266265869,11.7047500610352,11.7044734954834,11.7041969299316,11.7039203643799,11.7036437988281,11.7033681869507,11.7030916213989,11.7028150558472,11.7025384902954,11.7022619247437,11.7019853591919,11.7017097473145,11.7014331817627,11.7011566162109,11.7008800506592,11.7006044387817,11.70032787323,11.7000513076782,11.6997747421265,11.699499130249,11.6992225646973,11.6989469528198,11.6986703872681,11.6983938217163,11.6981182098389,11.6978416442871,11.7057418823242,11.7249631881714,11.7325458526611,11.7401390075684,11.7477416992188,11.7553539276123,11.7629766464233,11.7706089019775,11.7782506942749,11.7859029769897,11.7935657501221,11.8326663970947,11.8926458358765,11.9532308578491,12.0144214630127,12.0762424468994,12.1387023925781,12.2018117904663,12.2655811309814,12.3300199508667,12.3951406478882,12.4609518051147,12.5274658203125,12.5946931838989,12.6626462936401,12.7313375473022,12.8007774353027,12.8709783554077,12.9419546127319,13.0137166976929,13.0611486434937,13.0657844543457,13.0704231262207,13.0750665664673,13.0797119140625,13.084361076355,13.0890130996704,13.0936689376831,13.0983276367188,13.1029901504517,13.1076555252075,13.1123247146606,13.1169967651367,13.1216726303101,13.1263513565063,13.1310338973999,13.1357192993164,13.1404085159302,13.1451005935669,13.1497964859009,13.1544952392578,13.159197807312,13.1639032363892,13.1686124801636,13.1733245849609,13.1780405044556,13.1827592849731,13.187481880188,13.1922082901001,13.1969375610352,13.2016706466675,13.2064065933228,13.2111463546753,13.2158889770508,13.2206354141235,13.2253856658936,13.2301387786865,13.2348957061768,13.2396554946899,13.2444190979004,13.2491855621338,13.2539558410645,13.2587299346924,13.2635068893433,13.2682876586914,13.2730712890625,13.2778596878052,13.2826499938965,13.2874450683594,13.2922430038452,13.297043800354,13.3018493652344,13.3066577911377,13.311469078064,13.3162841796875,13.3211030960083,13.3259258270264,13.3307514190674,13.3355808258057,13.3404130935669,13.3452491760254,13.3500890731812,13.3549327850342,13.3597793579102,13.3646297454834,13.3694839477539,13.3765659332275,13.3847751617432,13.3929958343506,13.4012250900269,13.4094657897949,13.4177160263062,13.4259767532349,13.4342470169067,13.4425287246704,13.4508190155029,13.4591207504272,13.4674320220947,13.475754737854,13.4840860366821,13.4924287796021,13.5007820129395,13.50914478302,13.5175180435181,13.5259027481079,13.5342969894409,13.5427017211914,13.5511169433594,13.5595417022705,13.5679779052734,13.5764245986938,13.5848817825317,13.5933494567871,13.60182762146,13.6103172302246,13.6188163757324,13.6273260116577,13.6358470916748,13.6443786621094,13.6529207229614,13.661473274231,13.6700372695923,13.6786108016968,13.6871957778931,13.6957921981812,13.7043981552124,13.7130155563354,13.7216444015503,13.7302827835083,13.7389335632324,13.7475938796997,13.7562656402588,13.7649488449097,13.773642539978,13.7823467254639,13.7910623550415,13.7997894287109,13.8085269927979,13.8172760009766,13.8260364532471,13.8348073959351,13.8435897827148,13.8523826599121,13.8611879348755,13.8700037002563,13.8788299560547,13.8876686096191,13.8965177536011,13.9053792953491,13.9142513275146,13.923134803772,13.9320287704468,13.9409351348877,13.9498529434204,13.9587821960449,13.9677219390869,13.976674079895,13.9856376647949,13.9946117401123,14.0035982131958,14.0310163497925,14.0636959075928,14.0965280532837,14.1295146942139,14.162654876709,14.195951461792,14.2294054031372,14.2630167007446,14.2967882156372,14.3307189941406,14.3648109436035,14.3990669250488,14.4334850311279,14.4680690765381,14.5028190612793,14.5377368927002,14.5728225708008,14.6080780029297,14.6435041427612,14.679102897644,14.736234664917,14.7996063232422,14.863525390625,14.9279985427856,14.993034362793,15.0586395263672,15.1248207092285,15.1915855407715,15.2589435577393,15.3269014358521,15.3954668045044,15.4646482467651,15.5344543457031,15.6048936843872,15.6759748458862,15.7477073669434,15.8200979232788,15.8931579589844,17.284839630127,17.4735298156738,17.6664066314697,17.8394985198975,17.9963607788086,18.1560077667236,18.3185119628906,18.5041694641113,18.7911891937256,0,0,0,0,0,0,0,0,0,0,0,0,0,0,0,0,0,0,0,0,0,0,0,0,0,0,0,0,0,0,0,0,0,0,0,0,0,0,0,0,0,0,0,0,0,0,0,0,0,0,0,0,0,0,0,0,0,0,0,0,0,0,0,0,0,0,0,0,0,0,0,0,0,0,0,0,0,0,0,0,0,0
11.7127561569214,11.7124795913696,11.7122030258179,11.7119255065918,11.71164894104,11.7113723754883,11.7110958099365,11.7108182907104,11.7105417251587,11.7102651596069,11.7099885940552,11.7097110748291,11.7094345092773,11.7091579437256,11.7088813781738,11.7086048126221,11.7083282470703,11.7080516815186,11.7077751159668,11.707498550415,11.707221031189,11.7069444656372,11.7066679000854,11.7063913345337,11.7061147689819,11.7058382034302,11.7055616378784,11.7052850723267,11.7050085067749,11.7047328948975,11.7044563293457,11.7041797637939,11.7039031982422,11.7036266326904,11.7033500671387,11.7030735015869,11.7027969360352,11.7025213241577,11.702244758606,11.7019681930542,11.7016916275024,11.7014150619507,11.7011394500732,11.7008628845215,11.7005863189697,11.700309753418,11.7000341415405,11.6997575759888,11.699481010437,11.6992053985596,11.6989288330078,11.6986522674561,11.6983766555786,11.6981000900269,11.6978244781494,11.7059879302979,11.7144689559937,11.722038269043,11.7296171188354,11.7372064590454,11.7448053359985,11.7524137496948,11.7600326538086,11.7676610946655,11.7752990722656,11.7829475402832,11.8327951431274,11.8927764892578,11.9533529281616,12.0145444869995,12.0763664245605,12.1388282775879,12.2019386291504,12.2657089233398,12.3301496505737,12.3952713012695,12.4610843658447,12.5275993347168,12.5948286056519,12.6627836227417,12.7314748764038,12.8009166717529,12.8711194992065,12.9420967102051,13.013861656189,13.023383140564,13.0279922485352,13.0326042175293,13.0372200012207,13.0418395996094,13.0464611053467,13.0510873794556,13.0557155609131,13.0603475570679,13.0649833679199,13.0696210861206,13.0742635726929,13.0789089202881,13.0835571289062,13.0882091522217,13.0928640365601,13.0975227355957,13.1021842956543,13.1068487167358,13.111517906189,13.1161890029907,13.1208639144897,13.125542640686,13.1302242279053,13.1349096298218,13.1395978927612,13.1442890167236,13.1489849090576,13.1536827087402,13.1583843231201,13.1630897521973,13.1677980422974,13.1725101470947,13.177225112915,13.1819438934326,13.1866664886475,13.1913909912109,13.196120262146,13.200852394104,13.2055883407593,13.2103271484375,13.215069770813,13.2198152542114,13.2245645523071,13.2293167114258,13.2340726852417,13.2388324737549,13.243595123291,13.2483615875244,13.2531318664551,13.2579050064087,13.2626810073853,13.2674617767334,13.2722444534302,13.2770318984985,13.2818222045898,13.2866163253784,13.2914133071899,13.2962141036987,13.3010187149048,13.3070955276489,13.3152198791504,13.3233547210693,13.3314990997314,13.339653968811,13.3478183746338,13.355993270874,13.3641786575317,13.3723726272583,13.3805780410767,13.3887929916382,13.3970174789429,13.405252456665,13.4134979248047,13.4217529296875,13.4300184249878,13.4382944107056,13.4465799331665,13.4548759460449,13.4631824493408,13.4714994430542,13.4798259735107,13.4881629943848,13.4965105056763,13.5048685073853,13.5132369995117,13.5216159820557,13.5300045013428,13.5384035110474,13.5468139648438,13.5552339553833,13.5636644363403,13.5721063613892,13.5805578231812,13.5890197753906,13.5974931716919,13.6059761047363,13.6144704818726,13.6229753494263,13.6314907073975,13.6400165557861,13.6485528945923,13.6571006774902,13.6656579971313,13.6742267608643,13.6828060150146,13.6913967132568,13.6999979019165,13.7086095809937,13.7172327041626,13.725866317749,13.7345104217529,13.7431659698486,13.7518320083618,13.7605094909668,13.7691974639893,13.7778959274292,13.7866067886353,13.7953271865845,13.8040599822998,13.8128032684326,13.8215570449829,13.830322265625,13.8390989303589,13.8478870391846,13.8566856384277,13.8654956817627,13.8743171691895,13.8831491470337,13.891993522644,13.9008483886719,13.9097146987915,13.9185924530029,13.9274806976318,13.9363813400269,13.9452934265137,13.954216003418,13.9631509780884,13.9720964431763,13.9810543060303,13.996509552002,14.0290288925171,14.0616998672485,14.0945224761963,14.1274995803833,14.1606311798096,14.1939182281494,14.2273616790771,14.2609634399414,14.2947244644165,14.3286457061768,14.3627290725708,14.3969736099243,14.4313831329346,14.4659566879272,14.500696182251,14.5356035232544,14.5706787109375,14.6059246063232,14.6413402557373,14.6769285202026,14.7126903533936,14.7649078369141,14.8285264968872,14.8926963806152,14.9574241638184,15.0227165222168,15.0885820388794,15.1550273895264,15.2220602035522,15.2896890640259,15.3579216003418,15.4267654418945,15.4962291717529,15.5663213729858,15.6370506286621,15.7084264755249,15.7804555892944,15.8531494140625,17.302059173584,17.4911270141602,17.6843757629395,17.8639507293701,18.0212459564209,18.1813354492188,18.3442935943604,18.5211009979248,0,0,0,0,0,0,0,0,0,0,0,0,0,0,0,0,0,0,0,0,0,0,0,0,0,0,0,0,0,0,0,0,0,0,0,0,0,0,0,0,0,0,0,0,0,0,0,0,0,0,0,0,0,0,0,0,0,0,0,0,0,0,0,0,0,0,0,0,0,0,0,0,0,0,0,0,0,0,0,0,0,0
11.7127389907837,11.7124614715576,11.7121849060059,11.7119083404541,11.7116317749023,11.7113542556763,11.7110776901245,11.7108011245728,11.710524559021,11.7102470397949,11.7099704742432,11.7096939086914,11.7094173431396,11.7091407775879,11.7088642120361,11.7085866928101,11.7083101272583,11.7080335617065,11.7077569961548,11.707480430603,11.7072038650513,11.7069272994995,11.7066507339478,11.706374168396,11.7060976028442,11.7058210372925,11.7055444717407,11.705267906189,11.7049913406372,11.7047147750854,11.7044382095337,11.7041616439819,11.7038850784302,11.7036094665527,11.703332901001,11.7030563354492,11.7027797698975,11.7025032043457,11.7022266387939,11.7019510269165,11.7016744613647,11.701397895813,11.7011213302612,11.7008457183838,11.700569152832,11.7002925872803,11.7000160217285,11.6997404098511,11.6994638442993,11.6991872787476,11.6989116668701,11.6986351013184,11.6983585357666,11.6980829238892,11.6978063583374,11.69753074646,11.7039928436279,11.7115488052368,11.7191143035889,11.7266902923584,11.7342758178711,11.741870880127,11.749475479126,11.7570905685425,11.7647151947021,11.7735433578491,11.8329238891602,11.8929014205933,11.9534740447998,12.0146675109863,12.076491355896,12.1389532089233,12.2020654678345,12.2658376693726,12.3302793502808,12.3954019546509,12.4612159729004,12.5277328491211,12.5949640274048,12.6629199981689,12.7316131591797,12.7939863204956,12.8038644790649,12.8137578964233,12.8236665725708,12.8335905075073,12.8435306549072,12.8534851074219,12.8634557723999,12.873441696167,12.8834428787231,12.8934593200684,12.903491973877,12.9135408401489,12.9236040115356,12.9336833953857,12.9437789916992,13.0410413742065,13.0456628799438,13.0502872467041,13.0549154281616,13.0595474243164,13.0641813278198,13.0688199996948,13.0734615325928,13.0781059265137,13.0827541351318,13.0874052047729,13.092059135437,13.0967168807983,13.1013784408569,13.1060428619385,13.110710144043,13.1153812408447,13.1200561523438,13.1247339248657,13.1294145584106,13.1340990066528,13.1387872695923,13.1434783935547,13.1481733322144,13.152871131897,13.1575717926025,13.1622762680054,13.1669845581055,13.1716957092285,13.1764106750488,13.1811285018921,13.1858501434326,13.1905746459961,13.1953029632568,13.2000341415405,13.2047691345215,13.2095079421997,13.2142496109009,13.2189950942993,13.2237434387207,13.2284955978394,13.2332515716553,13.2383422851562,13.2463836669922,13.2544345855713,13.2624950408936,13.2705659866333,13.2786455154419,13.2867364883423,13.2948360443115,13.3029460906982,13.3110656738281,13.3191957473755,13.327335357666,13.3354845046997,13.3436441421509,13.3518133163452,13.359992980957,13.3681831359863,13.3763828277588,13.3845920562744,13.3928117752075,13.4010419845581,13.4092817306519,13.4175319671631,13.4257926940918,13.4340629577637,13.442343711853,13.4506340026855,13.4589357376099,13.4672470092773,13.4755687713623,13.4839000701904,13.4922428131104,13.5005950927734,13.508957862854,13.5173311233521,13.5257148742676,13.5341091156006,13.5425138473511,13.550929069519,13.5593538284302,13.5677900314331,13.5762367248535,13.5846929550171,13.5931606292725,13.6016387939453,13.6101274490356,13.6186265945435,13.6271362304688,13.6356573104858,13.6441879272461,13.6527299880981,13.6612825393677,13.6698455810547,13.6784200668335,13.6870040893555,13.6955995559692,13.7042064666748,13.7128229141235,13.7214517593384,13.7300901412964,13.7387399673462,13.7474002838135,13.7560720443726,13.7647552490234,13.7734479904175,13.7821531295776,13.790867805481,13.7995948791504,13.8083324432373,13.817081451416,13.8258409500122,13.8346118927002,13.8433933258057,13.8521871566772,13.8609914779663,13.8698062896729,13.8786334991455,13.8874711990356,13.8963203430176,13.9051809310913,13.9140529632568,13.9229364395142,13.931830406189,13.9407367706299,13.9496536254883,13.9585828781128,13.9675226211548,13.994532585144,14.027042388916,14.0597038269043,14.0925178527832,14.1254854202271,14.1586065292358,14.1918849945068,14.2253189086914,14.2589111328125,14.2926626205444,14.3265743255615,14.3606472015381,14.3948822021484,14.4292812347412,14.4638442993164,14.498574256897,14.5334711074829,14.5685367584229,14.6037712097168,14.6391773223877,14.6747541427612,14.7105054855347,14.746431350708,14.7936925888062,14.8575601577759,14.9219827651978,14.9869651794434,15.0525169372559,15.1186437606812,15.1853551864624,15.2526569366455,15.3205585479736,15.3890676498413,15.4581918716431,15.5279397964478,15.5983200073242,15.6693410873413,15.7410116195679,15.8133411407471,15.8863382339478,17.5087604522705,17.7024002075195,17.8884677886963,18.0461978912354,18.2067337036133,18.3701496124268,18.5381870269775,0,0,0,0,0,0,0,0,0,0,0,0,0,0,0,0,0,0,0,0,0,0,0,0,0,0,0,0,0,0,0,0,0,0,0,0,0,0,0,0,0,0,0,0,0,0,0,0,0,0,0,0,0,0,0,0,0,0,0,0,0,0,0,0,0,0,0,0,0,0,0,0,0,0,0,0,0,0,0,0,0
